-0.0190581,-0.0259758,0.953404,136,142,150
-0.0188603,-0.0260006,0.953216,134,142,153
-0.0186646,-0.0260007,0.95319,144,153,164
-0.0184248,-0.0260933,0.952928,144,153,163
-0.017842,-0.0260491,0.952388,145,152,158
-0.0174264,-0.0259935,0.952096,143,150,155
-0.017272,-0.0259912,0.952032,143,148,153
-0.0168933,-0.0259123,0.951798,142,147,151
-0.0164187,-0.0258991,0.951932,139,144,152
-0.016247,-0.0258996,0.951982,135,141,150
-0.01593,-0.0259385,0.952005,133,138,144
-0.0154335,-0.025944,0.952198,132,134,133
-0.0150657,-0.025957,0.952109,123,125,126
-0.0148896,-0.0258969,0.951942,116,119,122
-0.0146434,-0.0259832,0.951959,122,125,124
-0.0139257,-0.0259397,0.952789,124,124,121
-0.0135557,-0.0259168,0.95257,118,118,114
-0.0133793,-0.0259173,0.952834,115,115,112
-0.0131233,-0.0259029,0.95281,111,110,108
-0.0128152,-0.0259285,0.953406,111,111,108
-0.0123998,-0.0258586,0.953357,132,133,136
-0.0122561,-0.0258887,0.953129,132,132,135
-0.012153,-0.0258819,0.953102,130,131,133
-0.011748,-0.0258978,0.953826,120,120,118
-0.011573,-0.0259019,0.954127,118,117,114
-0.0113106,-0.0260132,0.954113,114,113,109
-0.0109707,-0.0260092,0.954333,108,107,102
-0.010786,-0.0259962,0.954385,111,110,106
-0.0105946,-0.0259831,0.954881,115,114,111
-0.0104141,-0.0259613,0.95497,120,119,117
-0.010239,-0.0259625,0.955114,128,127,123
-0.0100664,-0.0259585,0.954994,137,134,127
-0.010076,-0.0259679,0.954991,136,133,127
-0.00989739,-0.0259586,0.954999,143,140,130
-0.00954306,-0.0259657,0.955229,150,146,137
-0.00830767,-0.0258396,0.955153,159,156,146
-0.00775762,-0.025938,0.954145,163,160,149
-0.00750232,-0.0258466,0.953801,164,161,150
-0.00715956,-0.0259257,0.953737,168,165,154
-0.00694738,-0.025806,0.953177,170,166,155
-0.0067584,-0.0258201,0.95274,171,168,156
-0.00662271,-0.0258679,0.952928,171,168,156
-0.00630474,-0.0258323,0.952804,174,170,159
-0.00610074,-0.0258174,0.952673,175,171,160
-0.00528222,-0.0257363,0.951383,177,174,162
-0.00528912,-0.0257416,0.951463,177,174,162
-0.00513973,-0.0257791,0.951586,177,174,163
-0.00476181,-0.0256848,0.949915,178,174,162
-0.00103007,-0.0256494,0.950452,163,157,140
-0.000880151,-0.0256561,0.950845,162,155,139
-0.000706661,-0.0256572,0.950994,160,154,137
-0.000703274,-0.0256582,0.951033,160,154,137
0.000059886,-0.0257355,0.953075,154,147,129
0.000239752,-0.025733,0.952888,152,145,127
0.000796653,-0.02565,0.951438,144,135,115
0.00102696,-0.0256579,0.9517,144,136,114
0.00142075,-0.0256328,0.951715,134,125,104
0.00239395,-0.0257465,0.95325,122,110,88
0.00266155,-0.0257024,0.953703,121,110,87
0.00326479,-0.0256814,0.955034,116,104,81
0.00323709,-0.025729,0.954876,117,104,80
0.00359074,-0.02569,0.955035,109,96,72
0.00376457,-0.0256917,0.955172,112,99,77
0.00394441,-0.0257022,0.955647,117,105,83
0.00412449,-0.0257025,0.955684,120,109,89
0.00439506,-0.0257341,0.956009,123,114,97
0.00448983,-0.0256673,0.955928,123,115,99
0.00508083,-0.0256093,0.956085,128,123,114
0.0052547,-0.0256296,0.955935,131,127,118
0.00549223,-0.0256536,0.955271,134,130,124
0.00557299,-0.0256182,0.95543,134,131,124
0.0057287,-0.0257255,0.954824,136,133,128
0.00596148,-0.0256221,0.95404,138,135,130
0.00659045,-0.0255646,0.954424,138,136,132
0.00657899,-0.025707,0.954469,139,138,134
0.00686411,-0.0256206,0.954805,139,137,134
0.00787375,-0.0256889,0.955595,137,134,125
0.00809814,-0.0256537,0.955337,138,136,128
0.00837517,-0.0255719,0.955126,135,133,128
0.00827883,-0.0256931,0.955151,138,138,133
0.00895943,-0.025654,0.955168,132,134,134
0.00913117,-0.0256542,0.955174,127,129,129
0.00929167,-0.025656,0.955257,132,132,134
0.00982009,-0.0255117,0.955216,125,129,133
0.0107785,-0.0256137,0.9553,110,120,137
0.0109789,-0.0255315,0.955251,113,121,132
0.0111766,-0.0256201,0.955285,113,121,131
0.0112856,-0.0255268,0.955339,106,113,119
0.0115135,-0.0255203,0.955435,101,107,111
0.0117796,-0.0256287,0.955524,101,107,110
0.0118944,-0.0255728,0.955493,96,100,100
0.0118717,-0.0255849,0.955488,97,101,102
0.0121175,-0.0255555,0.955659,91,93,91
0.0122939,-0.0254959,0.955725,90,91,89
0.0124715,-0.0256144,0.955885,86,89,89
0.0128755,-0.0256304,0.9562,96,99,98
0.0130351,-0.0255116,0.956349,104,105,104
0.0132395,-0.0255846,0.956439,107,110,110
0.013208,-0.0256225,0.956537,106,108,109
0.013531,-0.0255967,0.956619,117,119,121
0.0139055,-0.0255254,0.956392,128,130,132
0.0140526,-0.0256318,0.956575,131,133,135
0.0145874,-0.0255254,0.95657,118,121,123
0.0147798,-0.0255267,0.956657,112,115,116
0.014966,-0.0255267,0.956701,107,109,110
0.0151325,-0.0254892,0.957246,105,107,108
0.0154634,-0.0256088,0.958554,95,95,91
0.0156394,-0.0255741,0.958617,109,109,105
0.0158079,-0.0255935,0.958647,131,131,128
0.0158339,-0.025572,0.958639,132,131,128
0.0159927,-0.025634,0.958775,135,134,132
0.0162907,-0.025503,0.959187,135,135,132
0.0210725,-0.0250663,0.941771,135,135,132
0.0246177,-0.0251224,0.941401,136,134,131
0.024779,-0.0251253,0.94146,135,136,134
0.0247934,-0.0250715,0.941424,135,137,137
0.0249454,-0.0249924,0.941308,153,166,169
0.0252391,-0.0251098,0.941039,147,163,169
0.0264518,-0.0249802,0.941242,146,176,189
0.027133,-0.0250601,0.940452,145,166,175
0.0272639,-0.0249846,0.940262,150,174,185
0.0274299,-0.0249823,0.940054,151,177,187
0.0275986,-0.0249731,0.940006,151,177,187
0.0277503,-0.0249767,0.939999,147,172,181
0.027941,-0.0250292,0.939975,129,150,157
0.0281355,-0.0250314,0.940134,116,137,143
0.0283634,-0.0249624,0.940257,118,144,154
0.028598,-0.0250193,0.940589,121,144,150
0.0287794,-0.0249472,0.940937,107,122,126
0.0290704,-0.0249922,0.941326,134,135,132
0.0290756,-0.0249598,0.941398,133,134,132
0.0291864,-0.0249869,0.941145,135,135,132
0.0316281,-0.0250298,0.943635,135,134,131
0.031811,-0.0249627,0.943763,135,135,132
0.0319372,-0.0249589,0.943547,136,135,132
0.0323412,-0.0249852,0.943161,135,135,132
0.0327811,-0.0250169,0.943208,135,135,132
0.0329386,-0.0250378,0.943374,135,134,132
-0.0191301,-0.0258418,0.953423,139,144,150
-0.0186642,-0.0258292,0.953106,137,146,157
-0.0184899,-0.0259305,0.953156,141,149,159
-0.0184364,-0.0258798,0.952813,140,148,158
-0.0179609,-0.0259019,0.952619,142,150,157
-0.0177762,-0.0258195,0.952453,142,149,156
-0.0175262,-0.0258343,0.95219,137,144,150
-0.0173571,-0.0258396,0.952137,135,142,148
-0.016323,-0.025757,0.952258,137,142,149
-0.0160507,-0.0258571,0.952166,133,139,146
-0.0153804,-0.025744,0.951437,117,121,125
-0.0147028,-0.0257664,0.952073,103,108,113
-0.0145564,-0.0258312,0.952016,112,116,119
-0.0145136,-0.0256992,0.952003,113,116,121
-0.0143347,-0.0257079,0.952456,121,123,125
-0.0140653,-0.0258267,0.952628,123,124,121
-0.0137484,-0.0258485,0.952632,121,121,118
-0.0135738,-0.025712,0.952822,119,120,116
-0.0133182,-0.0256912,0.952754,117,118,115
-0.0129632,-0.0257785,0.953172,114,114,111
-0.0126366,-0.0257749,0.953268,131,131,132
-0.0120254,-0.0257284,0.953351,128,128,127
-0.0116686,-0.0257328,0.953707,118,118,114
-0.0113868,-0.02578,0.954207,112,111,106
-0.0110629,-0.0258423,0.95429,109,108,104
-0.0108677,-0.0258276,0.954269,112,111,107
-0.0106831,-0.0258078,0.9543,116,115,112
-0.0104949,-0.025799,0.954896,120,119,117
-0.0103123,-0.025779,0.955074,127,126,123
-0.0103118,-0.0257995,0.955114,127,125,123
-0.00999022,-0.0258219,0.955066,142,139,129
-0.00990389,-0.0256761,0.955103,142,139,129
-0.00981052,-0.0258144,0.955127,146,143,132
-0.00958712,-0.0258156,0.955228,150,146,136
-0.00921823,-0.0256812,0.955225,150,148,139
-0.00854723,-0.0257915,0.955036,159,156,148
-0.00796407,-0.0256385,0.954069,162,158,147
-0.00767222,-0.025763,0.953965,161,158,146
-0.00767442,-0.0256906,0.953981,161,158,146
-0.00738241,-0.0257039,0.953692,166,163,152
-0.00710021,-0.0256855,0.95333,168,165,153
-0.00673273,-0.0256603,0.952973,171,167,156
-0.00659924,-0.0255849,0.95273,171,167,156
-0.0064216,-0.0256112,0.951906,172,169,157
-0.00631636,-0.0256298,0.952605,173,169,158
-0.0061162,-0.0256184,0.952366,174,170,159
-0.00570633,-0.0256324,0.951888,175,171,160
-0.00552328,-0.0256966,0.951673,176,173,161
-0.00524654,-0.0255489,0.951287,177,173,161
-0.00509978,-0.0255923,0.951455,177,173,162
-0.00138314,-0.025472,0.950398,165,159,143
-0.00160035,-0.0254105,0.948191,165,160,144
-0.00117673,-0.0254927,0.950596,164,158,142
-0.000938797,-0.0254882,0.950717,161,155,138
-0.000757743,-0.0254896,0.950873,160,154,137
-0.000493162,-0.0255477,0.951249,157,151,134
0.00036325,-0.0255218,0.951363,150,143,125
0.000807694,-0.0254794,0.951397,145,136,117
0.0010261,-0.0255292,0.951589,144,135,114
0.00123084,-0.0255598,0.951671,141,132,110
0.00367528,-0.025544,0.955043,109,96,73
0.00385367,-0.0255399,0.955229,115,102,80
0.00400189,-0.0255436,0.955408,119,107,86
0.00421245,-0.0255567,0.955718,122,112,93
0.00457295,-0.0255205,0.955944,124,115,100
0.0047819,-0.0254448,0.95575,126,118,107
0.00491506,-0.0254464,0.955717,128,122,112
0.00649204,-0.0254332,0.954341,135,133,126
0.00674731,-0.0255396,0.954989,137,136,132
0.00793125,-0.0255008,0.95542,136,133,125
0.00852469,-0.0254891,0.955119,136,135,131
0.00883847,-0.0254999,0.955175,136,136,135
0.00938371,-0.025366,0.955261,133,135,135
0.00955575,-0.0253662,0.955278,130,132,133
0.00972367,-0.0253645,0.955171,126,129,132
0.00986685,-0.0253645,0.95518,119,122,127
0.0100548,-0.0253631,0.955165,117,122,127
0.0103237,-0.0254687,0.955265,114,122,131
0.0104711,-0.0254752,0.955126,111,121,132
0.0106718,-0.0254651,0.955215,114,122,134
0.010947,-0.0253334,0.955198,110,114,119
0.0111418,-0.0253205,0.955153,102,104,107
0.011309,-0.02532,0.955213,93,95,98
0.0116824,-0.0254741,0.955437,97,102,103
0.0116537,-0.0254128,0.955496,93,97,98
0.0119947,-0.0254126,0.95544,86,88,86
0.0125369,-0.0254242,0.955929,95,95,94
0.012754,-0.0254721,0.956163,100,100,100
0.0129272,-0.0253735,0.95637,101,102,100
0.0131689,-0.0253581,0.956528,108,108,107
0.0133532,-0.0254325,0.956598,114,116,115
0.0134047,-0.0254744,0.956625,115,116,116
0.0134843,-0.0253246,0.956452,120,121,120
0.0136473,-0.0254603,0.956486,123,125,125
0.0136985,-0.0253323,0.956363,126,127,127
0.0140307,-0.0253829,0.956431,134,136,138
0.0142574,-0.0254592,0.956594,131,133,135
0.0144278,-0.0254584,0.95658,128,130,131
0.0146783,-0.0253767,0.956516,120,124,125
0.0148727,-0.0253715,0.956535,112,115,116
0.0153483,-0.0254199,0.958002,100,101,99
0.0157084,-0.0253966,0.958636,97,97,92
0.0159041,-0.0253963,0.958813,127,127,123
0.0160932,-0.0254575,0.959017,135,135,132
0.0160988,-0.0253802,0.959033,134,134,131
0.0205863,-0.0249818,0.942036,135,135,132
0.0207749,-0.0249804,0.942077,135,135,132
0.0209838,-0.0249209,0.941747,135,135,133
0.0211593,-0.02492,0.94169,135,136,132
0.0223639,-0.0249049,0.94277,135,135,132
0.022636,-0.0248699,0.940813,135,135,132
0.0244368,-0.0248991,0.941786,136,135,132
0.024669,-0.0249725,0.941462,135,135,133
0.0248123,-0.0248684,0.941358,142,151,152
0.0250702,-0.0248971,0.941008,156,173,179
0.0252354,-0.0249071,0.940278,155,173,178
0.0258461,-0.0249484,0.940726,147,168,176
0.0269453,-0.0248596,0.939754,143,167,178
0.0271307,-0.0248647,0.939767,152,174,185
0.0273204,-0.0248251,0.940024,153,178,190
0.0275041,-0.0248292,0.93992,151,178,189
0.0276728,-0.0248249,0.939891,150,175,186
0.0278471,-0.0248248,0.939907,141,164,172
0.028227,-0.0248275,0.940045,108,133,141
0.0284761,-0.0248556,0.940378,132,160,170
0.0285159,-0.0248325,0.940404,129,156,165
0.0286418,-0.024774,0.940628,108,132,139
0.0289801,-0.0248211,0.941252,124,130,130
0.0293032,-0.0248212,0.941294,134,134,132
0.0316338,-0.0247818,0.94323,135,135,132
0.0319268,-0.0249057,0.943706,136,135,132
0.0321281,-0.0248581,0.943417,135,135,133
0.032352,-0.0248192,0.943111,135,135,134
0.0326056,-0.0248142,0.942965,133,136,136
0.0327502,-0.0248845,0.943087,134,135,134
0.032955,-0.0248591,0.943053,134,134,133
0.0331448,-0.0248098,0.942996,133,134,131
0.0333619,-0.024769,0.943412,134,134,131
-0.0192923,-0.0257871,0.953805,134,138,142
-0.0190621,-0.0256566,0.953241,136,141,146
-0.0188722,-0.0257085,0.953066,127,134,142
-0.0186274,-0.0256215,0.953031,137,145,153
-0.0184668,-0.0256829,0.952972,137,145,153
-0.0182705,-0.0256613,0.952776,139,145,153
-0.0178771,-0.025648,0.952579,139,146,153
-0.0173266,-0.0256542,0.952156,135,142,150
-0.017176,-0.0256059,0.95233,138,144,151
-0.0165198,-0.0256818,0.952315,140,145,150
-0.0163256,-0.0255891,0.952275,136,141,147
-0.0161248,-0.0256369,0.952217,132,137,142
-0.0152083,-0.0255718,0.952125,108,116,127
-0.0151012,-0.0257013,0.952094,89,96,105
-0.014892,-0.0256365,0.95223,98,105,115
-0.0146871,-0.0255696,0.952214,117,121,129
-0.0146051,-0.0255822,0.952219,117,121,128
-0.01467,-0.0255913,0.952158,115,120,128
-0.0146051,-0.0255822,0.952219,117,121,128
-0.0142233,-0.0255595,0.952635,118,120,121
-0.0128974,-0.0256216,0.953257,123,124,125
-0.0127101,-0.0256234,0.953268,133,134,138
-0.0127048,-0.0256214,0.953248,133,134,138
-0.012521,-0.0256217,0.953227,134,136,139
-0.0123626,-0.0256259,0.953171,133,134,137
-0.0119065,-0.0255663,0.953589,123,122,119
-0.0117345,-0.0255665,0.953679,117,117,113
-0.0115537,-0.0255688,0.953895,112,111,107
-0.0113389,-0.025563,0.95412,109,108,105
-0.011127,-0.0256507,0.954068,112,111,107
-0.0108664,-0.025543,0.954405,117,117,113
-0.0105786,-0.0256365,0.954844,121,120,117
-0.0103975,-0.0256057,0.954921,127,125,123
-0.0100728,-0.0256766,0.955118,138,135,129
-0.00998863,-0.0255293,0.955074,137,134,128
-0.00981826,-0.025531,0.95515,144,141,131
-0.00971289,-0.0256661,0.955154,147,143,133
-0.00951067,-0.0256681,0.955165,150,147,137
-0.00863104,-0.0255966,0.955125,156,153,144
-0.00844817,-0.0256011,0.95502,160,157,147
-0.00828407,-0.0256028,0.954642,161,158,148
-0.00782707,-0.0254816,0.954273,159,155,144
-0.00778953,-0.0255204,0.954122,160,156,145
-0.00752955,-0.0255827,0.953835,164,161,149
-0.00748405,-0.0255899,0.953907,165,162,150
-0.00724973,-0.0255623,0.953509,167,164,153
-0.00685519,-0.0254184,0.952971,168,165,154
-0.00666658,-0.0254723,0.952757,170,166,156
-0.00666716,-0.0254743,0.952757,170,166,156
-0.00564632,-0.0254415,0.951072,174,170,159
-0.00543007,-0.0255165,0.9514,175,171,160
-0.00520169,-0.0253559,0.951095,175,171,160
-0.00446805,-0.0254467,0.950776,176,173,160
-0.000964205,-0.0252943,0.95061,161,155,138
-0.000706512,-0.0253169,0.951031,158,152,135
-0.000504973,-0.0253471,0.951133,157,151,134
-0.000334877,-0.025368,0.95168,156,149,132
-0.000158352,-0.0253877,0.95218,155,148,131
4.81164E-05,-0.0254333,0.952184,154,147,130
0.000321476,-0.025354,0.951434,150,143,125
0.000470893,-0.0253819,0.951446,149,142,123
0.00100771,-0.025294,0.951431,144,135,116
0.00125158,-0.0253743,0.951591,138,129,109
0.00152175,-0.0253293,0.949654,133,123,102
0.00381408,-0.0253825,0.955007,112,100,79
0.00389112,-0.0252756,0.955063,112,101,81
0.00444422,-0.0253292,0.95566,127,116,96
0.00457311,-0.0253487,0.955773,127,117,100
0.00485393,-0.0252362,0.953333,127,120,108
0.00504128,-0.0253592,0.953262,129,123,114
0.00522965,-0.0253066,0.953072,131,126,116
0.00564492,-0.0253736,0.95347,134,129,121
0.00590753,-0.0252619,0.95366,136,129,119
0.00649686,-0.0252616,0.954196,132,126,114
0.00669849,-0.0253386,0.954765,133,130,122
0.00814848,-0.025365,0.955427,136,133,124
0.00840745,-0.025325,0.955501,134,131,120
0.00860509,-0.0253592,0.955259,135,133,125
0.00861968,-0.0252258,0.955467,135,131,120
0.00875011,-0.025336,0.955133,135,134,127
0.00892275,-0.0253358,0.955206,134,134,129
0.00908687,-0.025336,0.955121,133,134,131
0.00930095,-0.0252548,0.955318,132,133,132
0.0094936,-0.0252567,0.955449,130,131,133
0.00962104,-0.0252189,0.955292,128,129,132
0.00982226,-0.0252134,0.955074,117,121,125
0.00999346,-0.0252132,0.955037,108,113,118
0.0101866,-0.02517,0.955217,109,113,121
0.0104851,-0.0252695,0.955292,110,116,123
0.0106479,-0.0252692,0.955327,111,116,123
0.0108254,-0.0252693,0.955333,109,113,118
0.0111572,-0.0252211,0.955049,97,99,101
0.0114364,-0.0252348,0.955136,90,92,92
0.0117615,-0.0252815,0.955371,83,86,85
0.0116265,-0.0251646,0.955221,89,92,91
0.0119196,-0.0252497,0.955325,87,88,87
0.0120648,-0.0252551,0.955558,90,91,89
0.0122631,-0.0252612,0.955894,94,94,92
0.0124519,-0.0252624,0.95602,93,95,90
0.0128059,-0.0252677,0.956409,100,102,98
0.0129397,-0.0251652,0.956407,104,105,101
0.0131506,-0.025212,0.95643,109,110,107
0.0133924,-0.0252305,0.956454,118,118,117
0.013629,-0.0251851,0.95658,123,124,123
0.0137771,-0.0251818,0.956446,128,129,131
0.0139245,-0.025178,0.956325,133,134,136
0.0144399,-0.0252255,0.956563,129,133,135
0.0145867,-0.0252225,0.956482,126,130,133
0.0149848,-0.0252002,0.956649,111,113,115
0.0152215,-0.0252291,0.957246,104,106,104
0.0152119,-0.0252091,0.957222,104,106,105
0.0154343,-0.025158,0.957961,91,91,87
0.0154362,-0.0251592,0.957975,91,91,87
0.0157665,-0.0251886,0.958748,85,84,78
0.015985,-0.0252164,0.959036,119,118,113
0.0162115,-0.0251873,0.959517,129,129,124
0.0164176,-0.0252038,0.959713,135,134,131
0.0165718,-0.0252205,0.959661,135,135,131
0.0204755,-0.0248233,0.941775,135,135,131
0.0206453,-0.0248223,0.941783,135,135,132
0.0208204,-0.0248223,0.941805,135,136,134
0.0211165,-0.0247602,0.941688,136,140,139
0.0219531,-0.0248808,0.942697,135,135,131
0.0222073,-0.0248875,0.942613,135,135,132
0.024397,-0.0247183,0.941883,135,135,132
0.0245153,-0.0247714,0.94164,136,135,132
0.0247058,-0.0247271,0.941401,138,144,144
0.0249525,-0.0247881,0.941183,153,170,175
0.0252459,-0.0247246,0.940055,150,169,174
0.0254235,-0.0246679,0.940017,158,178,186
0.0256104,-0.0247508,0.94017,159,180,190
0.026426,-0.0247197,0.94034,136,166,181
0.0266322,-0.0246925,0.940091,147,180,195
0.0268442,-0.0246605,0.939846,138,164,176
0.026996,-0.0246849,0.939776,149,173,184
0.0272826,-0.024662,0.939892,151,178,190
0.0274543,-0.0247417,0.939947,151,178,190
0.0275938,-0.0246776,0.939854,147,173,185
0.0277623,-0.0246769,0.939842,145,168,177
0.027925,-0.0246759,0.939809,130,152,159
0.028109,-0.0246763,0.939907,104,128,137
0.0283637,-0.0246943,0.940222,120,149,160
0.0285509,-0.0245995,0.940443,121,146,157
0.0288764,-0.0247203,0.941139,104,117,120
0.029182,-0.024682,0.941495,134,135,132
0.0293114,-0.0246524,0.941628,134,134,132
0.031552,-0.0246327,0.943265,133,138,139
0.0317115,-0.0246322,0.943186,134,140,143
0.0319488,-0.024724,0.943356,134,135,136
0.0321276,-0.0246857,0.943166,134,138,140
0.032385,-0.0246497,0.943023,136,147,152
0.0325183,-0.0245777,0.942856,151,171,181
0.0326778,-0.0246449,0.942839,144,159,166
0.0328397,-0.0246453,0.942796,138,151,157
0.0331445,-0.0246359,0.942848,123,131,131
0.0333894,-0.0246397,0.943309,131,133,131
0.0335355,-0.0247131,0.943419,135,134,131
-0.0192524,-0.0256036,0.953567,140,145,148
-0.0189872,-0.0255121,0.953167,138,142,146
-0.0187866,-0.0255598,0.95308,136,143,149
-0.0185504,-0.0254848,0.95314,137,144,150
-0.0182948,-0.0254652,0.952972,138,144,150
-0.0180981,-0.0254443,0.952805,136,142,148
-0.0176983,-0.0255681,0.952414,136,143,150
-0.0173418,-0.0255061,0.952274,135,142,151
-0.017171,-0.0254375,0.952421,137,144,152
-0.0158697,-0.0254062,0.952133,114,122,137
-0.0157141,-0.0254598,0.952102,117,124,137
-0.0155045,-0.0253961,0.952216,128,136,150
-0.0154301,-0.0254916,0.952074,117,125,137
-0.0151023,-0.0255315,0.952143,112,120,130
-0.0148971,-0.0254649,0.952145,121,126,133
-0.013971,-0.0255029,0.952643,119,121,121
-0.0137675,-0.0255062,0.952841,121,121,121
-0.013362,-0.0254257,0.953092,117,119,121
-0.0131863,-0.0254725,0.953094,115,118,121
-0.0131349,-0.0255083,0.953083,117,119,121
-0.0129916,-0.025474,0.953186,122,126,131
-0.0129515,-0.0255063,0.953083,124,127,131
-0.0129824,-0.0254696,0.953091,123,126,132
-0.0127867,-0.0254691,0.953118,133,137,143
-0.012596,-0.0254688,0.953155,134,138,142
-0.0123994,-0.0254688,0.953223,132,134,135
-0.0122114,-0.0254077,0.953379,128,129,128
-0.0118091,-0.0254077,0.953775,117,117,112
-0.0112515,-0.0253961,0.954455,114,114,110
-0.0110553,-0.0254865,0.954516,115,114,111
-0.0109453,-0.0253665,0.954637,117,116,113
-0.0106872,-0.0254862,0.954704,121,120,117
-0.0104864,-0.0254417,0.954743,126,125,122
-0.0103034,-0.0254091,0.954915,131,130,128
-0.0101248,-0.025388,0.955066,136,134,130
-0.009936,-0.0254103,0.95508,140,138,131
-0.00961757,-0.0253778,0.955106,143,140,131
-0.00947595,-0.0254554,0.955038,148,145,135
-0.00921169,-0.0253324,0.955285,151,148,139
-0.00929218,-0.0254941,0.955264,149,146,137
-0.00875607,-0.0254473,0.955138,154,150,141
-0.00857891,-0.025422,0.955017,149,146,136
-0.00839883,-0.0254245,0.9548,160,157,146
-0.00773276,-0.0253251,0.954123,161,158,146
-0.00757363,-0.0254367,0.953935,163,160,148
-0.00738041,-0.0254326,0.95369,166,162,151
-0.0073255,-0.0253054,0.953502,166,162,152
-0.00719199,-0.0253999,0.953621,167,163,153
-0.00719605,-0.0254005,0.953651,167,163,153
-0.00719605,-0.0254005,0.953651,167,163,153
-0.00680834,-0.0252562,0.952584,168,164,153
-0.00655354,-0.0253913,0.952475,170,167,155
-0.0058229,-0.0252898,0.951279,173,169,158
-0.00562305,-0.0252981,0.951074,173,170,159
-0.00461766,-0.0252523,0.949686,174,170,159
-0.00214299,-0.0252005,0.948178,167,162,148
-0.00203338,-0.0251246,0.947947,165,160,146
-0.00137902,-0.0252645,0.950221,163,157,142
-0.000804946,-0.0251174,0.950809,159,153,136
-0.000638044,-0.0252335,0.951016,157,151,134
-0.00051227,-0.0251458,0.95098,156,150,133
-0.00024135,-0.0251494,0.950761,154,148,130
-0.000286708,-0.025157,0.951107,155,148,131
-7.10083E-05,-0.02517,0.951307,154,147,130
0.00022149,-0.0251799,0.951135,151,144,127
0.000465711,-0.0252062,0.951319,148,141,122
0.000814865,-0.0252298,0.951359,145,136,117
0.00126557,-0.0252033,0.951458,138,129,109
0.00158997,-0.0251499,0.94981,132,122,101
0.00325587,-0.0251314,0.951358,116,105,86
0.0043482,-0.0251615,0.954907,119,109,92
0.00475885,-0.0250643,0.952789,129,124,112
0.00503595,-0.0251803,0.952963,130,124,115
0.00515684,-0.0251326,0.952757,134,129,122
0.00540579,-0.0251516,0.953076,134,129,120
0.00564495,-0.025176,0.953255,136,131,121
0.00590671,-0.0250879,0.953286,150,147,140
0.00590642,-0.0250874,0.953352,151,147,140
0.00619041,-0.0251675,0.9535,132,124,110
0.00668698,-0.0251607,0.954251,126,121,109
0.00668698,-0.0251607,0.954251,126,121,109
0.00668698,-0.0251607,0.954251,126,121,109
0.00693937,-0.0251063,0.954842,128,123,114
0.00842084,-0.0251795,0.955602,137,133,121
0.008822,-0.0251731,0.955271,134,131,123
0.009059,-0.0251596,0.955429,132,132,128
0.00935422,-0.0250218,0.955369,130,131,132
0.00972525,-0.0250689,0.955191,124,127,130
0.00972219,-0.0250674,0.955174,124,127,131
0.00990387,-0.0250683,0.955139,117,121,125
0.0103914,-0.0251225,0.955289,105,111,117
0.0105643,-0.0251226,0.955305,103,108,114
0.0107559,-0.025043,0.955405,102,107,112
0.0109353,-0.0251093,0.955368,100,103,107
0.0111322,-0.0249431,0.951641,101,103,106
0.0115237,-0.0249756,0.954766,102,104,105
0.0118249,-0.0251038,0.955337,94,96,95
0.0119985,-0.025104,0.955335,96,97,96
0.0123503,-0.0249795,0.955864,103,104,101
0.01253,-0.0249788,0.955914,107,108,104
0.0127197,-0.0251192,0.956357,104,105,101
0.0130783,-0.0250463,0.956483,109,110,108
0.0132383,-0.0250451,0.956504,114,115,113
0.0134773,-0.0250651,0.956599,119,120,119
0.0138296,-0.0250192,0.956484,125,127,128
0.013691,-0.0250329,0.956574,120,121,120
0.0140338,-0.0250455,0.956673,131,133,135
0.0143325,-0.0250648,0.956787,131,134,137
0.0144927,-0.0250605,0.956553,125,129,132
0.0146649,-0.0250599,0.956605,120,125,128
0.0148593,-0.0249633,0.956711,113,118,120
0.015032,-0.0249633,0.956679,107,111,111
0.015307,-0.0249704,0.957248,92,93,90
0.0154573,-0.0250961,0.958027,88,88,84
0.0156468,-0.0251025,0.958465,80,80,74
0.0160297,-0.0250152,0.959247,87,87,82
0.0160553,-0.0250234,0.959387,90,90,85
0.0162914,-0.0250028,0.959723,123,122,117
0.0164865,-0.0250226,0.959886,134,134,130
0.0166646,-0.0250418,0.959958,135,135,131
0.0192637,-0.0246861,0.941571,135,135,131
0.0192637,-0.0246861,0.941571,135,135,131
0.0192637,-0.0246861,0.941571,135,135,131
0.0194198,-0.024693,0.941701,136,135,132
0.0196867,-0.0246009,0.941437,135,135,132
0.020582,-0.0246683,0.941764,135,135,133
0.0207469,-0.0246752,0.941796,135,137,137
0.020908,-0.0246738,0.941747,144,150,152
0.0219107,-0.0247232,0.942616,135,135,133
0.0221517,-0.0246887,0.942211,135,136,134
0.0223219,-0.024688,0.941482,135,135,133
0.0241651,-0.0245469,0.942093,135,135,132
0.024354,-0.0245422,0.941996,135,135,133
0.0246698,-0.024541,0.941508,144,155,159
0.0248246,-0.0245036,0.941588,153,172,179
0.0252471,-0.0245522,0.93996,153,172,180
0.0254278,-0.0244998,0.939974,157,181,192
0.0256106,-0.0245813,0.94005,160,185,197
0.0257844,-0.0245774,0.939907,157,184,195
0.0261658,-0.0244703,0.939935,118,151,168
0.0264248,-0.024541,0.940124,135,167,184
0.0266341,-0.0245216,0.939877,142,171,184
0.0268997,-0.0244689,0.93986,145,169,180
0.0270968,-0.0245775,0.939788,151,176,187
0.0272901,-0.0244936,0.939816,151,179,191
0.0274581,-0.0245734,0.939861,148,176,188
0.0276236,-0.0244833,0.939793,141,166,179
0.0276751,-0.0245291,0.939771,143,167,178
0.027843,-0.0245285,0.939764,138,161,169
0.028021,-0.0245295,0.939815,109,131,139
0.0281997,-0.0245298,0.939863,105,132,142
0.0284158,-0.0244466,0.940251,126,154,165
0.0287441,-0.024515,0.940776,98,119,125
0.0287328,-0.0245191,0.940716,98,119,126
0.0290131,-0.0245681,0.941331,118,127,127
0.0292012,-0.0244386,0.941661,132,134,132
0.0294123,-0.0244902,0.941829,135,134,131
0.0307022,-0.0245415,0.943214,136,134,131
0.030917,-0.0244627,0.943247,135,136,136
0.0312885,-0.0244654,0.943381,137,147,152
0.0314616,-0.0244828,0.943258,141,155,162
0.0316251,-0.0244827,0.943198,150,169,177
0.0316953,-0.0244203,0.942964,154,179,190
0.031809,-0.0245695,0.943226,140,152,159
0.0319465,-0.0244132,0.943183,150,176,189
0.0321282,-0.0245132,0.942921,149,168,178
0.0323459,-0.0244737,0.942586,152,177,189
0.0326651,-0.0244764,0.942684,145,171,184
0.0326415,-0.0243987,0.942504,142,170,183
0.0329392,-0.0244949,0.942734,127,145,152
0.0330293,-0.0243778,0.942556,117,136,141
0.0335742,-0.0243904,0.943419,133,135,132
-0.0198918,-0.0254205,0.957085,142,146,151
-0.0191027,-0.0253834,0.95347,141,145,149
-0.018909,-0.0253884,0.953424,141,145,149
-0.0187189,-0.0254246,0.953253,137,144,149
-0.0184601,-0.0253279,0.95313,137,143,149
-0.0177939,-0.0253973,0.952573,135,142,150
-0.0173215,-0.0253352,0.95226,135,143,152
-0.0169901,-0.0253862,0.952286,138,144,151
-0.016854,-0.0253423,0.952463,140,144,150
-0.0166858,-0.0252708,0.952205,139,144,149
-0.0164667,-0.0252566,0.952438,139,145,151
-0.0163975,-0.0253434,0.95243,139,145,151
-0.0160745,-0.0252936,0.952287,128,135,148
-0.0157075,-0.0252389,0.952324,133,142,157
-0.0155441,-0.0252376,0.952327,133,140,152
-0.0152749,-0.0252425,0.952092,130,134,140
-0.0149919,-0.0253298,0.952288,125,129,133
-0.014718,-0.0252696,0.95212,121,123,124
-0.0145209,-0.0253087,0.952244,119,122,123
-0.0140955,-0.0253162,0.952498,118,121,123
-0.0130811,-0.0253284,0.953213,127,131,140
-0.0130291,-0.0252767,0.953112,130,136,146
-0.0128605,-0.0253165,0.953072,132,137,148
-0.0126128,-0.0252725,0.953157,132,136,140
-0.0122445,-0.0252529,0.953561,128,128,127
-0.0120783,-0.0252519,0.95356,123,123,121
-0.0119027,-0.0252519,0.953617,118,118,115
-0.0114511,-0.0252712,0.954321,116,116,114
-0.0113004,-0.0251999,0.954294,121,120,119
-0.0107975,-0.0253367,0.954563,122,121,118
-0.0105522,-0.0252791,0.954767,125,125,122
-0.0105922,-0.0252794,0.9548,124,124,121
-0.0103898,-0.025236,0.95456,128,128,127
-0.0102194,-0.025237,0.954808,133,132,131
-0.0100462,-0.0252372,0.954807,138,136,133
-0.00986914,-0.0252404,0.954968,140,138,133
-0.00973462,-0.0252182,0.954994,138,136,130
-0.00973336,-0.0252043,0.954967,138,136,130
-0.00954744,-0.0251982,0.955123,142,139,132
-0.009364,-0.0251902,0.955175,149,146,139
-0.00937853,-0.0252789,0.955215,148,145,136
-0.00923222,-0.0251845,0.954961,152,149,141
-0.00865732,-0.0252575,0.9551,156,152,143
-0.00851983,-0.0252279,0.954749,159,155,145
-0.00851755,-0.0252432,0.954798,159,155,145
-0.00834146,-0.0252514,0.954505,160,156,146
-0.00839006,-0.0251907,0.954243,160,156,146
-0.00761039,-0.0251738,0.953982,162,159,147
-0.00736555,-0.0251327,0.953607,164,161,149
-0.00699462,-0.0251676,0.952405,167,164,152
-0.00583172,-0.0249908,0.948391,171,167,155
-0.00580722,-0.0250902,0.951087,171,168,157
-0.00571599,-0.0250633,0.950805,171,168,157
-0.00250112,-0.0250665,0.9502,169,165,151
-0.00227548,-0.0250846,0.950395,168,163,150
-0.00157408,-0.024951,0.950252,161,156,141
-0.000839591,-0.0249974,0.949835,158,152,135
-0.000247243,-0.0249479,0.9506,154,148,130
-8.05065E-06,-0.0249569,0.950622,152,145,128
0.0002174,-0.0250227,0.951124,150,144,127
0.000464793,-0.0250208,0.95109,148,141,123
0.000766396,-0.0250491,0.94996,145,137,118
0.000774503,-0.0249764,0.949294,144,136,117
0.00104031,-0.0249875,0.949807,141,132,113
0.00131647,-0.0249225,0.949995,137,129,110
0.00136255,-0.0249714,0.949758,137,127,108
0.00276089,-0.0249822,0.951195,121,111,92
0.00296851,-0.0249497,0.951354,121,111,93
0.00296716,-0.0249499,0.951364,121,111,93
0.00296716,-0.0249499,0.951364,121,111,93
0.00317447,-0.0249174,0.951525,118,110,94
0.00322413,-0.0249264,0.951164,119,110,94
0.00341182,-0.0249012,0.950787,120,113,99
0.00373934,-0.0250158,0.950804,121,113,97
0.00432136,-0.0250278,0.952027,125,117,104
0.00457485,-0.0248867,0.951944,142,139,133
0.00473893,-0.0248811,0.951954,150,148,143
0.00502472,-0.0249963,0.952403,148,144,139
0.00502879,-0.0250041,0.952506,147,143,137
0.00531536,-0.024914,0.952373,161,160,157
0.00540493,-0.0249726,0.952795,144,142,136
0.0056747,-0.0250202,0.953063,152,150,145
0.005906,-0.024913,0.953066,174,173,176
0.0061342,-0.0249796,0.953232,146,141,133
0.00618995,-0.0249933,0.95321,140,134,123
0.00638868,-0.0250244,0.953374,135,126,110
0.0066958,-0.0249929,0.954294,129,121,106
0.00823324,-0.0249542,0.955744,138,134,125
0.00842161,-0.0250096,0.955762,138,131,117
0.00860084,-0.0250105,0.955764,135,127,112
0.00882504,-0.0249909,0.955585,138,134,125
0.00877859,-0.0250107,0.955726,139,133,123
0.00903178,-0.0249065,0.955665,137,135,131
0.00923207,-0.0249034,0.95543,134,134,133
0.00964916,-0.0249212,0.955371,127,128,131
0.0095981,-0.0248653,0.955304,129,130,134
0.00999604,-0.0249209,0.955071,121,124,129
0.010179,-0.0249961,0.955366,116,120,126
0.0103785,-0.0249481,0.95541,113,118,125
0.0105214,-0.0248693,0.95546,114,119,126
0.0111955,-0.0247631,0.95109,109,111,115
0.0114045,-0.0248534,0.951744,105,106,108
0.0128029,-0.0249714,0.95632,105,106,104
0.0129875,-0.0248787,0.956438,107,109,105
0.013145,-0.0248773,0.956446,111,112,110
0.0138707,-0.0248174,0.956672,122,123,124
0.0140747,-0.0248436,0.956861,124,126,128
0.0142453,-0.0249178,0.956785,127,130,132
0.0144219,-0.0248274,0.95673,120,124,127
0.0147726,-0.0248161,0.956683,111,116,118
0.01494,-0.024815,0.956665,108,112,112
0.0149385,-0.0248157,0.956669,108,112,112
0.015269,-0.0248351,0.957008,90,92,88
0.0157672,-0.0248532,0.958589,71,71,64
0.0157441,-0.0249372,0.958554,73,72,67
0.0160474,-0.0248802,0.959482,76,75,70
0.016361,-0.0248221,0.959899,110,109,105
0.0191903,-0.0244999,0.941911,135,135,132
0.0193164,-0.0244949,0.941666,135,135,132
0.0194895,-0.0245318,0.941532,135,135,132
0.0208531,-0.0244608,0.94171,154,168,173
0.0210226,-0.0244572,0.941488,151,167,173
0.0212469,-0.0244505,0.941296,138,151,153
0.0214495,-0.0244131,0.941314,135,146,146
0.0216541,-0.0244761,0.941691,137,141,141
0.021901,-0.024545,0.942217,136,140,140
0.0221248,-0.0245312,0.942012,138,143,143
0.0228194,-0.0244158,0.941256,137,142,144
0.023202,-0.0244585,0.94212,135,134,133
0.0233828,-0.0243825,0.942631,135,135,132
0.023589,-0.02439,0.942998,136,135,133
0.0239554,-0.0244018,0.942154,134,135,132
0.0239834,-0.0244049,0.942058,134,135,132
0.0245256,-0.0244146,0.941918,138,145,149
0.0246628,-0.0243481,0.94167,150,168,175
0.0251259,-0.0244235,0.940002,153,173,179
0.0254472,-0.0243049,0.939941,159,187,201
0.0256112,-0.0244118,0.939937,159,188,200
0.0257431,-0.0242803,0.939859,143,170,180
0.0259181,-0.0242789,0.939761,132,159,169
0.0260946,-0.0242799,0.939832,122,155,168
0.0263611,-0.0244345,0.939977,137,171,188
0.0267188,-0.0244267,0.939759,137,162,173
0.0268044,-0.0242617,0.939762,144,168,179
0.0269801,-0.0243021,0.939763,149,176,188
0.0271411,-0.0243011,0.939739,152,181,193
0.0274651,-0.0244044,0.939795,144,171,184
0.0276362,-0.024314,0.939743,147,175,188
0.0279428,-0.0243803,0.939772,123,146,154
0.0279422,-0.0243809,0.939773,123,146,154
0.0281183,-0.024381,0.939806,103,127,135
0.0286252,-0.0243431,0.940499,102,128,136
0.0292001,-0.0243007,0.941852,130,134,133
0.0294083,-0.0242844,0.942018,134,134,131
0.0306937,-0.0243766,0.943382,134,135,135
0.0312076,-0.0243181,0.943437,146,163,170
0.0314515,-0.0243093,0.943055,151,175,185
0.031942,-0.0242602,0.942431,142,169,181
0.0320975,-0.0243249,0.943058,149,175,186
0.032352,-0.024302,0.942338,145,173,185
0.0325447,-0.0243701,0.942628,146,175,188
0.0326427,-0.0242205,0.942304,153,185,202
0.0328395,-0.0242689,0.942278,146,170,183
0.0330244,-0.024206,0.942354,115,136,145
0.0332414,-0.0243659,0.942938,112,127,130
0.0336081,-0.0242047,0.942843,130,135,133
0.033826,-0.024261,0.943432,134,134,131
0.0340336,-0.0243236,0.943574,134,135,132
0.0341945,-0.0243164,0.94276,134,134,130
0.0343885,-0.0243364,0.942564,135,135,131
-0.0206907,-0.0252548,0.958727,139,140,141
-0.0205742,-0.0254114,0.958552,138,140,141
-0.0198788,-0.0252291,0.956529,137,142,146
-0.0193191,-0.0252874,0.953778,140,144,148
-0.0191828,-0.0252033,0.953581,137,142,148
-0.0189992,-0.025135,0.953462,139,146,152
-0.0187286,-0.0252464,0.953469,140,144,150
-0.0182169,-0.0252152,0.952952,135,142,149
-0.01803,-0.0252543,0.952718,135,142,149
-0.0170497,-0.0251997,0.952474,136,143,149
-0.0168839,-0.0250985,0.952297,136,142,149
-0.0166842,-0.0250821,0.952412,135,141,150
-0.016092,-0.0251024,0.952342,138,145,155
-0.015948,-0.0250559,0.952191,132,140,149
-0.0156065,-0.0250801,0.952328,130,137,145
-0.0154277,-0.0250703,0.952261,127,132,137
-0.0152628,-0.025069,0.952273,120,125,128
-0.0150804,-0.0251848,0.952335,123,126,129
-0.0147811,-0.0250692,0.952073,115,119,121
-0.0146386,-0.0250835,0.952189,116,119,122
-0.0143087,-0.0250897,0.952508,119,121,126
-0.0138282,-0.0251203,0.952767,124,127,130
-0.0136483,-0.02508,0.95289,129,132,136
-0.0133508,-0.0251799,0.953056,127,132,137
-0.0131598,-0.0251818,0.953216,125,132,141
-0.013096,-0.0251181,0.953191,126,134,146
-0.0127836,-0.0251761,0.953197,132,138,147
-0.0126178,-0.0250767,0.953431,132,136,139
-0.012316,-0.0250938,0.953515,127,128,127
-0.011818,-0.0250987,0.953598,117,117,115
-0.0115984,-0.0250938,0.95395,118,118,117
-0.0116896,-0.0250483,0.953672,118,118,117
-0.0114097,-0.0250381,0.954122,124,123,122
-0.0110975,-0.0251764,0.954455,119,119,116
-0.0108865,-0.0251624,0.954556,121,121,118
-0.0106818,-0.0251493,0.954702,123,123,121
-0.0103936,-0.0250477,0.954215,130,130,129
-0.0100561,-0.0250703,0.954732,136,135,133
-0.00969377,-0.0250224,0.955041,139,137,134
-0.00950978,-0.0250149,0.955117,144,141,136
-0.0093478,-0.0250216,0.955026,148,145,137
-0.00934917,-0.0250182,0.955012,147,144,137
-0.00934966,-0.0250245,0.955023,148,145,137
-0.00934966,-0.0250245,0.955023,148,145,137
-0.008826,-0.0250719,0.955042,155,151,141
-0.00848588,-0.0250664,0.954401,159,156,145
-0.00829524,-0.0250006,0.953921,159,156,146
-0.00830983,-0.0250625,0.953889,159,156,146
-0.00777088,-0.0250612,0.954117,162,158,146
-0.00755776,-0.0249881,0.953432,160,157,145
-0.00736546,-0.0249535,0.953422,163,159,147
-0.00705734,-0.0250037,0.952598,166,162,151
-0.00693104,-0.0249813,0.952241,166,162,151
-0.00671887,-0.0249186,0.951973,166,162,151
-0.00664655,-0.0249359,0.951988,167,163,152
-0.00555905,-0.0249651,0.948779,171,167,156
-0.00530361,-0.0249188,0.948668,171,167,156
-0.00513134,-0.0249224,0.948827,171,167,155
-0.00457593,-0.0248075,0.948578,170,166,154
-0.00257389,-0.0249387,0.950118,168,164,151
-0.00227617,-0.0248902,0.950159,166,161,148
-0.0021065,-0.0248047,0.950219,164,159,144
-0.00183566,-0.0249092,0.950088,162,158,142
-0.00168321,-0.0247566,0.949062,160,155,139
-0.00147607,-0.024756,0.949258,160,154,139
-0.00110702,-0.0248449,0.949421,159,153,137
-0.000801423,-0.0247417,0.948926,156,150,134
-0.000834157,-0.024834,0.949985,157,151,135
-0.000712314,-0.0247444,0.949002,155,149,134
-0.000562609,-0.0248118,0.949441,156,149,133
1.70384E-05,-0.0247771,0.950168,150,143,127
0.0001541,-0.0247831,0.950472,149,142,126
0.000389943,-0.0248356,0.95075,148,142,125
0.000919997,-0.0248481,0.949036,142,134,116
0.00109865,-0.0248037,0.949108,139,131,115
0.00251234,-0.0247449,0.950369,125,118,105
0.00291438,-0.0247055,0.950373,135,130,124
0.00319518,-0.0247828,0.950545,126,121,112
0.00373907,-0.0248276,0.950619,135,130,122
0.00385645,-0.0247589,0.95056,150,148,144
0.00466649,-0.0247593,0.951351,165,165,163
0.00502214,-0.0248221,0.952063,157,157,155
0.00528607,-0.0246889,0.951967,180,182,184
0.0056149,-0.0248323,0.952625,165,166,166
0.00588054,-0.0246993,0.952527,188,190,193
0.00590145,-0.0247362,0.952739,190,193,196
0.00613002,-0.0248021,0.952867,157,156,153
0.00638256,-0.0248422,0.952964,134,126,111
0.00653246,-0.0248248,0.953385,134,126,107
0.00842302,-0.0248399,0.955938,125,117,98
0.00860533,-0.0248383,0.95582,124,114,93
0.00898763,-0.0247443,0.955704,141,138,133
0.00937081,-0.0248356,0.955489,134,135,137
0.0100831,-0.0248134,0.956017,125,128,133
0.0110157,-0.0247161,0.95106,113,115,119
0.0113004,-0.0245956,0.951188,117,119,121
0.0114823,-0.0246742,0.951356,110,112,114
0.0126556,-0.0247947,0.955853,106,108,103
0.0130556,-0.0247227,0.956325,108,109,106
0.0131706,-0.0247034,0.956205,109,110,107
0.0137583,-0.0247393,0.956584,117,120,119
0.0139707,-0.0246661,0.956545,120,122,124
0.0141028,-0.0246364,0.956735,119,121,123
0.0148994,-0.0246749,0.956582,101,104,104
0.0150194,-0.0246681,0.956651,96,98,97
0.0150251,-0.0247136,0.956562,99,101,100
0.0153805,-0.0247045,0.956983,77,78,72
0.0156774,-0.0246602,0.95826,67,67,60
0.0161902,-0.0247194,0.959754,74,74,69
0.0165647,-0.0247607,0.96,130,129,126
0.0167325,-0.0247596,0.960028,135,134,132
0.0168147,-0.0247511,0.959566,136,135,132
0.0192156,-0.0242687,0.941714,136,136,134
0.0193784,-0.0242868,0.941505,141,144,142
0.0193908,-0.0243342,0.941521,139,141,139
0.0195481,-0.0243533,0.94127,143,147,145
0.0197858,-0.0243375,0.941119,139,144,143
0.0199287,-0.0242993,0.940914,137,141,140
0.01993,-0.0242998,0.940943,137,141,140
0.0202402,-0.0243892,0.941266,135,135,132
0.0206754,-0.0243616,0.941893,148,155,160
0.0210199,-0.024273,0.941208,156,175,182
0.02123,-0.0242679,0.941002,142,159,162
0.0216613,-0.0243009,0.941698,144,156,158
0.0219068,-0.0243276,0.941716,155,166,169
0.0221175,-0.0242975,0.94166,149,164,166
0.0230344,-0.024352,0.941952,137,142,143
0.0231687,-0.0243266,0.942171,134,137,137
0.0233891,-0.0243674,0.94264,135,135,132
0.0235998,-0.0242133,0.942738,135,135,132
0.0238466,-0.0242472,0.942148,135,135,132
0.0238816,-0.0242508,0.942168,134,135,132
0.0241139,-0.0243012,0.942061,135,135,131
0.0243088,-0.0242535,0.941975,134,137,139
0.0245568,-0.024194,0.941694,149,168,177
0.0249603,-0.024131,0.939988,152,174,184
0.0251231,-0.0241296,0.939893,154,178,188
0.0252027,-0.0242765,0.93987,154,178,187
0.0254659,-0.0241354,0.939918,159,189,203
0.0255036,-0.0241436,0.939835,157,186,200
0.0256482,-0.0241345,0.93982,144,172,183
0.0258198,-0.024133,0.939708,142,168,177
0.0259994,-0.024133,0.939747,125,154,165
0.0262795,-0.0241668,0.939732,135,169,185
0.0264448,-0.0241668,0.93969,137,168,181
0.0266093,-0.0241681,0.939593,137,164,175
0.0274653,-0.0242347,0.939693,139,166,179
0.0275589,-0.0240881,0.939607,140,172,185
0.0277662,-0.0240844,0.939628,150,184,198
0.0278595,-0.024232,0.939711,140,168,179
0.0280414,-0.0242326,0.939771,112,135,144
0.0281999,-0.0242311,0.939717,103,129,138
0.0284028,-0.0242386,0.94018,124,151,162
0.0285115,-0.0241916,0.940309,123,151,160
0.028711,-0.0241244,0.940597,95,121,129
0.029539,-0.0241333,0.942375,134,134,131
0.0306073,-0.024222,0.943418,136,144,146
0.0307774,-0.024256,0.943447,140,150,154
0.0309694,-0.0241474,0.94336,146,165,172
0.0312677,-0.0241893,0.942884,144,165,174
0.0313132,-0.0241975,0.942829,144,165,175
0.0315037,-0.0242063,0.942979,143,167,177
0.0315014,-0.024221,0.942938,143,168,178
0.0316946,-0.0242208,0.942574,137,164,176
0.0319397,-0.0240877,0.942142,136,160,170
0.0320287,-0.0240907,0.942201,139,164,174
0.0322029,-0.0241708,0.942186,145,170,181
0.0324242,-0.0241219,0.942228,149,180,196
0.0328399,-0.0240988,0.942168,151,182,200
0.0330266,-0.0240503,0.942145,106,132,144
0.0332553,-0.0240316,0.942316,87,109,117
0.0335898,-0.0240298,0.942431,126,136,139
0.0338348,-0.0241861,0.942506,134,135,132
0.0340316,-0.024075,0.942224,134,135,133
0.0342022,-0.0241713,0.942303,135,134,131
0.0342957,-0.02404,0.942427,134,135,134
0.034511,-0.0240913,0.942265,135,135,131
0.0346347,-0.0240809,0.942211,135,135,131
0.034775,-0.0241369,0.942435,135,135,131
0.0347761,-0.0241367,0.942425,135,135,131
-0.0205791,-0.0251557,0.958902,139,142,146
-0.019804,-0.0250458,0.956344,134,139,143
-0.0196294,-0.0251404,0.956102,136,140,145
-0.0196133,-0.0251088,0.956098,136,140,145
-0.0193395,-0.0250373,0.954271,136,140,144
-0.0189131,-0.0250126,0.953626,135,142,151
-0.018638,-0.0250731,0.953478,136,143,152
-0.018366,-0.0249707,0.953376,134,142,150
-0.0173586,-0.0249599,0.952675,135,143,150
-0.0172839,-0.0250478,0.952388,135,143,150
-0.0171165,-0.0250511,0.952497,137,143,150
-0.0168533,-0.0249049,0.952506,128,136,148
-0.0166732,-0.0249036,0.952456,132,141,154
-0.0165201,-0.0249535,0.952459,134,142,153
-0.0161875,-0.0248905,0.95239,136,142,148
-0.0159909,-0.0248877,0.95231,134,139,144
-0.0158229,-0.0248862,0.952283,130,135,140
-0.0156678,-0.0248832,0.952179,125,130,135
-0.0154596,-0.0248767,0.952289,112,117,123
-0.0152667,-0.0250051,0.952292,113,118,122
-0.0150805,-0.0249499,0.952402,102,107,112
-0.0150861,-0.0250093,0.952409,108,112,116
-0.0149344,-0.0250071,0.952323,111,115,119
-0.0146181,-0.0249093,0.952431,117,122,127
-0.0143643,-0.0249386,0.952643,119,124,130
-0.0138365,-0.0249329,0.95286,127,132,137
-0.0136515,-0.0248931,0.953013,135,140,148
-0.0133543,-0.0249274,0.953177,124,131,141
-0.0131733,-0.0249295,0.953298,121,130,145
-0.0130035,-0.0249279,0.953231,126,135,149
-0.012833,-0.0249271,0.953283,132,137,146
-0.012585,-0.0248531,0.953555,130,131,134
-0.0124553,-0.0249833,0.953552,129,130,131
-0.0123033,-0.0248846,0.953585,124,124,125
-0.0111537,-0.0249814,0.954347,120,120,119
-0.0109268,-0.0249651,0.9544,124,124,123
-0.0107515,-0.024883,0.954326,128,128,127
-0.0106927,-0.0249263,0.954169,127,127,127
-0.0104847,-0.0248973,0.954136,130,130,129
-0.00992089,-0.0249519,0.954993,138,137,135
-0.00995403,-0.0249792,0.954883,137,137,135
-0.00962933,-0.0246898,0.945057,148,145,141
-0.00899298,-0.0247264,0.946136,152,150,143
-0.00661039,-0.0247766,0.949416,167,162,151
-0.00606077,-0.0246805,0.94882,167,163,151
-0.00466302,-0.0246149,0.948093,167,163,152
-0.00388345,-0.0247729,0.950148,168,164,153
-0.00367015,-0.0248073,0.950526,170,166,154
-0.00340879,-0.0247682,0.950369,170,166,154
-0.00333862,-0.0246473,0.948533,168,164,153
-0.00304988,-0.0246752,0.948908,168,164,152
-0.00282398,-0.0246892,0.949092,166,162,150
-0.00269641,-0.0246802,0.949758,165,161,149
-0.00251296,-0.0247712,0.950191,166,161,148
-0.00227088,-0.0246225,0.949215,162,158,146
-0.00229207,-0.0247221,0.950149,164,160,145
-0.00202408,-0.0245987,0.949047,160,156,144
-0.0016207,-0.0245879,0.948463,157,153,141
-0.00147802,-0.0245984,0.948813,156,153,141
-0.00117255,-0.0246422,0.948855,157,153,138
-0.000934186,-0.0246049,0.948628,156,151,139
-0.000708707,-0.0245696,0.948724,155,151,142
-0.000671088,-0.024587,0.948787,154,150,141
-0.000150101,-0.0246726,0.949316,151,145,132
0.000257967,-0.0245517,0.948726,150,147,138
0.000461665,-0.0246557,0.948781,146,140,127
0.000616267,-0.0246839,0.949336,146,139,125
0.000814372,-0.0245976,0.949079,144,139,129
0.00100932,-0.0246651,0.949145,140,134,122
0.0012525,-0.0245684,0.949127,146,143,136
0.00123818,-0.0245624,0.949065,146,144,137
0.00123758,-0.0245623,0.949062,146,144,137
0.00122933,-0.0245615,0.949016,146,144,137
0.00161722,-0.0246422,0.949771,136,131,121
0.00196451,-0.0245953,0.950036,142,139,132
0.00219256,-0.0246592,0.950045,131,126,117
0.00263333,-0.0246321,0.950214,146,144,140
0.00248351,-0.0245587,0.950003,160,158,157
0.00266575,-0.0245904,0.949903,158,156,154
0.00289419,-0.0246269,0.950031,153,151,149
0.00290981,-0.0245296,0.949964,169,170,172
0.00319441,-0.0246088,0.950249,161,162,162
0.00354905,-0.0246683,0.95026,164,164,165
0.00394578,-0.0246757,0.950567,162,162,161
0.00437015,-0.0246221,0.950931,163,164,164
0.00501016,-0.0246375,0.951469,159,160,161
0.00555172,-0.0245563,0.951927,181,186,189
0.00561059,-0.0246516,0.952247,166,169,172
0.00622336,-0.0245949,0.952742,148,147,142
0.00649489,-0.0246182,0.952998,126,118,102
0.00664557,-0.0246563,0.953557,128,118,99
0.00663848,-0.0246688,0.953597,129,119,99
0.00852659,-0.0246901,0.955906,130,120,99
0.00871889,-0.0246886,0.955761,137,130,113
0.0106571,-0.0244882,0.950686,137,135,132
0.0111042,-0.0245577,0.950995,129,131,133
0.0112898,-0.0244849,0.951099,121,123,125
0.0129183,-0.0245715,0.955732,105,106,102
0.0130956,-0.0245113,0.955921,104,104,99
0.0135968,-0.0245119,0.956624,112,114,111
0.0138009,-0.024538,0.956794,117,119,119
0.0140368,-0.0244714,0.956657,116,118,120
0.0145574,-0.0245907,0.956759,111,114,116
0.0148904,-0.0245143,0.956958,92,96,96
0.0151524,-0.0245255,0.956871,85,86,84
0.0155352,-0.0244825,0.957669,67,67,60
0.0157037,-0.0244638,0.958218,62,62,56
0.0157794,-0.0245066,0.958439,62,62,56
0.0159737,-0.0246153,0.959007,67,66,61
0.0162981,-0.0245445,0.959896,73,72,68
0.0163117,-0.0245566,0.959914,75,74,69
0.0164756,-0.0246002,0.960014,102,101,97
0.0166452,-0.024599,0.960013,130,130,127
0.0191852,-0.0242008,0.941726,136,136,134
0.0191796,-0.0242029,0.94176,136,136,134
0.0192077,-0.0242146,0.941717,136,137,135
0.0194422,-0.0241088,0.94127,158,170,172
0.019575,-0.0241775,0.941178,156,168,169
0.0196977,-0.0241929,0.941204,150,162,163
0.0198549,-0.0241873,0.940857,143,153,153
0.0199333,-0.0241229,0.940777,142,153,153
0.0199324,-0.0241223,0.940747,142,152,153
0.0202152,-0.0241761,0.941456,134,136,136
0.0204532,-0.0241891,0.941688,135,142,145
0.0206746,-0.0241875,0.94161,154,170,176
0.0208766,-0.0241787,0.941128,160,180,188
0.0210436,-0.0240603,0.940727,150,170,175
0.0212295,-0.0240682,0.940396,144,162,166
0.02206,-0.0240144,0.940102,139,159,163
0.0226606,-0.024055,0.940973,124,142,146
0.0228217,-0.0241272,0.941421,136,151,156
0.0230083,-0.024034,0.941707,140,157,161
0.0231738,-0.024137,0.942101,138,150,152
0.0233988,-0.0241794,0.94266,132,136,134
0.0237435,-0.024096,0.94233,136,135,132
0.0238976,-0.0240266,0.942268,136,135,132
0.0240264,-0.0241551,0.942073,135,135,132
0.0241882,-0.0240306,0.942033,138,146,150
0.0241803,-0.0240943,0.942034,135,139,142
0.0243449,-0.0240269,0.941808,153,172,181
0.0245167,-0.0240416,0.941407,146,170,181
0.0245426,-0.0240586,0.941312,146,169,180
0.0248877,-0.0239859,0.940145,153,178,190
0.0250448,-0.0239831,0.93994,151,176,187
0.0252074,-0.0239829,0.939877,157,186,199
0.0253907,-0.0239838,0.939833,158,188,203
0.0255596,-0.0239833,0.939717,143,171,184
0.0257416,-0.0239841,0.939677,145,171,182
0.0259194,-0.0239835,0.939681,137,164,175
0.0261928,-0.0240218,0.939711,130,163,179
0.026361,-0.0240218,0.939691,146,179,195
0.026527,-0.0240227,0.939653,137,166,179
0.0265252,-0.0240209,0.939626,137,166,179
0.0266895,-0.0240216,0.939613,142,168,179
0.026875,-0.0240761,0.939666,150,177,189
0.027051,-0.0240744,0.939586,153,183,196
0.0272948,-0.0240516,0.939568,151,179,191
0.0274749,-0.0239381,0.939528,129,158,171
0.0274934,-0.0240513,0.939604,133,163,176
0.0276721,-0.0239379,0.939557,143,177,194
0.0278504,-0.0239391,0.939602,150,184,200
0.0280182,-0.0239397,0.9397,133,164,176
0.0281532,-0.0240703,0.939802,104,131,139
0.0284927,-0.0239896,0.940237,126,152,162
0.0286132,-0.0239407,0.940354,102,127,135
0.0292031,-0.0240934,0.941976,123,129,129
0.0294258,-0.0240856,0.942146,134,134,130
0.0295785,-0.0239341,0.942534,134,134,131
0.0306136,-0.0240474,0.943347,143,160,166
0.0308557,-0.0240624,0.943448,148,167,175
0.0313034,-0.0240125,0.942428,149,170,177
0.0314894,-0.0240092,0.942232,147,167,174
0.0317613,-0.0240055,0.942119,139,159,168
0.0320314,-0.0239217,0.942131,146,173,185
0.0322134,-0.0240042,0.942252,147,176,189
0.0326515,-0.0239753,0.942048,152,190,213
0.0328446,-0.0239255,0.941964,153,187,205
0.0338338,-0.0240105,0.942247,133,138,139
0.0340839,-0.0238787,0.942166,139,150,154
0.034204,-0.0240018,0.942173,132,136,136
