ply
format ascii 1.0
element vertex 141
property double x
property double y
property double z
property uchar red
property uchar green
property uchar blue
end_header
0.0358647254347161 -0.0138500257833110 0.9364348356480706 110 145 185
0.0346162943309612 -0.0221562184706031 0.9414166482746812 84 108 118
0.0040732038284658 -0.0466127433771472 0.9531616047530920 80 76 73
0.0268405547501705 -0.0221590649923646 0.9390210944810312 111 141 152
0.0055614771562871 -0.0244132671272264 0.9518625240981009 197 201 204
0.0048223532117129 -0.0242844891963569 0.9507740211941063 194 195 197
0.0102891260513443 -0.0235616585212433 0.9491667132341898 189 190 192
0.0143350800190591 -0.0214106333143299 0.9516053598882250 53 80 107
0.0206825159050873 -0.0216689418838789 0.9386391763633078 109 141 154
0.0216604899311504 -0.0207639818641792 0.9343950845186586 37 66 106
0.0304945737123392 -0.0130644946844376 0.9337249966788399 152 184 197
0.0206550993175785 -0.0207310439050466 0.9343751107248526 122 151 169
0.0327091732270094 -0.0128092684863519 0.9364839108838674 129 157 178
0.0311465476261508 -0.0124901128117645 0.9337098232061330 137 156 160
0.0216997707317248 -0.0203783033641752 0.9336055263743812 111 140 172
0.0012943238459331 -0.0563394476492279 0.9511639383739788 126 130 139
-0.0049378838821159 -0.0473461257456521 0.9518306697263781 148 136 124
0.0306492970247448 -0.0116717606480208 0.9325311080402078 82 109 120
0.0345962334461274 -0.0113552428180871 0.9366988670470101 55 83 122
0.0043150139894334 -0.0466978862605433 0.9531402083852691 53 44 29
-0.0159457454307252 -0.0185270039849182 0.9498101319708627 26 49 65
0.0313935781343019 -0.0102000082338584 0.9325693861815118 67 97 108
-0.0041084576138574 -0.0458817836868679 0.9523182063046782 181 176 173
0.0037507193528881 -0.0241998824218223 0.9500838863355230 200 205 209
-0.0187420064216453 -0.0217673219802112 0.9536388051709674 21 34 43
-0.0199136336334680 -0.0483200574552365 0.9572092366309478 63 96 113
-0.0040556687881782 -0.0464948407052907 0.9521072059365359 149 138 132
0.0041422404993461 -0.0461931348414397 0.9534701128839674 32 25 15
-0.0165870679833429 -0.0161364823589961 0.9466885254144830 8 21 38
0.0131558300770029 -0.0202277742879011 0.9500835578018554 73 85 97
0.0048432885714691 -0.0457782776414777 0.9537999372009126 63 47 24
0.0321137931038461 -0.0139357011341361 0.9370411482681839 142 186 213
0.0346437684654252 -0.0150995691383402 0.9366489754864324 70 106 154
0.0343803883005234 -0.0130232658306407 0.9361564843514597 49 82 123
-0.0008167929719289 -0.0242146868248565 0.9483160249177547 199 204 208
0.0343083533278183 -0.0117046584898660 0.9363720368172876 14 35 64
0.0077332210076703 -0.0239911595950827 0.9467930364359363 193 197 200
0.0331901993035626 -0.0229138839436238 0.9408977804535100 119 144 151
0.0313666637666182 -0.0106924198282079 0.9324198272629501 73 99 112
0.0116724262862451 -0.0223787165658163 0.9517749655729405 143 145 142
-0.0184432670341738 -0.0222625163145839 0.9540120587526640 92 103 121
0.0292180530241564 -0.0204229818963914 0.9405933572217962 141 181 206
0.0088759966019460 -0.0520812253433641 0.9569839915401800 114 113 111
-0.0066032288016751 -0.0465758166252740 0.9515438512129673 169 180 198
0.0358418265250132 -0.0125555204112289 0.9366812207651055 89 119 147
0.0334223208206136 -0.0121536275580211 0.9362388341771100 102 135 180
-0.0050503932613514 -0.0463125059035401 0.9521786510637512 158 154 155
0.0310638441213244 -0.0186357755706690 0.9375796662923273 148 177 191
0.0302198166090992 -0.0101597726115007 0.9322205054901591 53 82 100
0.0110431132510471 -0.0243256625843498 0.9510476695517927 161 162 164
0.0377958721097970 -0.0159226825875065 0.9374214169321027 94 131 175
0.0143466069590544 -0.0233535578939033 0.9569317723154581 91 90 88
0.0040882216160393 -0.0223719418722680 0.9434581544168659 199 204 207
0.0086509157175752 -0.0512649746603438 0.9570004940937279 118 121 128
0.0367228533672454 -0.0137763897633411 0.9368073300404839 121 157 189
0.0136573763487852 -0.0208235421328583 0.9507800205896239 71 93 116
-0.0162172738461971 -0.0514490890375293 0.9556761323439916 145 184 217
0.0250194334406090 -0.0202105957872486 0.9380804936106205 62 76 79
0.0308771305291129 -0.0113121246791314 0.9323052373689317 142 171 185
-0.0045050500183209 -0.0464304398994233 0.9521356901252657 50 42 39
0.0227408217013508 -0.0199055145573685 0.9342635149691634 54 85 131
0.0095550114499161 -0.0463876888858104 0.9578913986106788 62 65 74
0.0231154794998591 -0.0190610720273321 0.9324419220962341 36 67 111
0.0303189883506204 -0.0183944573358403 0.9373675875998043 97 127 138
-0.0084621282397622 -0.0460105440439920 0.9519277363764033 70 54 39
-0.0066171040008354 -0.0452070101212801 0.9515600809272348 184 182 187
0.0002583237865642 -0.0564172011538177 0.9512731949477459 80 86 100
0.0348295078969396 -0.0159164218239072 0.9369022689400347 108 143 183
-0.0141839919863166 -0.0180149758099743 0.9479471313820238 34 37 42
0.0350324067550476 -0.0153186506739221 0.9366675231543176 124 161 205
0.0007131796793571 -0.0558128774724757 0.9514096470760937 140 145 149
0.0368214266757403 -0.0166601703648586 0.9378006073770586 100 134 179
0.0094313568230552 -0.0500120663078662 0.9575301381650438 116 116 116
0.0348563831332192 -0.0166219639236294 0.9374870749076301 26 49 83
0.0083142939586783 -0.0487015474397533 0.9570482713467042 68 69 71
0.0348563831332192 -0.0166219639236294 0.9374870749076301 26 49 83
0.0029049263522098 -0.0457413256154339 0.9528999595467420 15 15 15
0.0096119924199247 -0.0423388994692540 0.9573953652194314 122 118 117
-0.0013075908116118 -0.0417223007679160 0.9474519601686143 189 165 141
0.0309036128525985 -0.0130477105922395 0.9338410259684820 88 113 120
0.0135854017699330 -0.0382885846754237 0.9592654954733935 140 139 134
-0.0067117600950006 -0.0068742985750908 0.8793873984260011 182 67 72
-0.0112398129727589 -0.0572690859709965 0.9527442103920988 121 125 126
0.0034840911217214 -0.0557040622439741 0.9528028562931852 127 129 141
0.0034840911217214 -0.0557040622439741 0.9528028562931852 127 129 141
-0.0227867571474392 -0.0049138662272909 0.8782036675595584 21 32 64
-0.0064297434550667 -0.0595821729880405 0.9525144074412361 109 113 114
-0.0234250696939364 -0.0036739347760226 0.8778615815906955 90 121 141
-0.0281856974131652 -0.0016398301391103 0.8767003440949065 72 99 118
0.0084325148016734 -0.0477239674246613 0.9571041450980837 121 124 131
0.0104432043059863 -0.0473276580760005 0.9573862085974961 117 121 124
-0.0379244469274162 0.0008737057304109 0.8752544416882344 56 75 118
-0.0026441707782679 -0.0221889440446879 0.9420421281107796 204 214 223
0.0037966675320320 -0.0452318580101902 0.9534873751205477 154 152 153
-0.0194893807754360 -0.0213863518155979 0.9537912797073123 8 9 13
0.0373754321880253 -0.0173422130150063 0.9392367012254924 40 61 82
0.0340005171746126 -0.0167193418043557 0.9379842069635058 106 143 188
-0.0148823629249833 -0.0087394971733430 0.8804323793641362 135 149 162
-0.0148823629249833 -0.0087394971733430 0.8804323793641362 135 149 162
-0.0080327822599859 -0.0076375370265505 0.8796574407056601 186 148 145
-0.0122022403950720 -0.0203481739445053 0.9460526627392186 167 174 182
-0.0233547485617569 -0.0059363880758118 0.8794741303988891 119 136 152
-0.0067509708360279 -0.0124415227873309 0.8818170068097007 186 138 134
-0.0161621830811111 -0.0504200795831489 0.9565056590375497 108 117 126
-0.0062059282484555 -0.0114411511946453 0.8815290129643513 185 94 99
-0.0070487073148148 -0.0096073595645642 0.8806121342499574 186 91 99
-0.0270541020322952 -0.0045287555971008 0.8777869966717554 131 143 157
0.0057191636155738 -0.0317625046914680 0.9560293876061398 54 25 7
-0.0057284212270579 -0.0076433422846605 0.8796326201917951 173 160 169
-0.0270541020322952 -0.0045287555971008 0.8777869966717554 131 143 157
0.0141421204988053 -0.0249265257539010 0.9563297406583996 136 137 139
-0.0103311985708180 -0.0032537798812333 0.8781384761749798 16 29 61
-0.0176183861731255 -0.0007542868293651 0.8763375895010118 17 28 60
-0.0247716338164581 0.0016371912102468 0.8753296467237792 15 28 60
-0.0148066801034402 -0.0216385498736439 0.9499551496917154 197 211 224
0.0106759125265622 -0.0303472256331503 0.9613664848861422 59 55 52
-0.0216317867918676 -0.0009565101846230 0.8764075665945935 130 142 158
0.0106759125265622 -0.0303472256331503 0.9613664848861422 59 55 52
-0.0175275324898595 -0.0006244439699746 0.8766012585682533 15 26 56
-0.0149797555806859 -0.0276496951015864 0.9522698232129815 160 162 161
-0.0274613521050558 -0.0003127827987753 0.8756850730052346 15 26 58
-0.0002005604257741 -0.0393432324429192 0.9487014024060150 147 84 53
-0.0259654554847815 0.0006869380361363 0.8751263282391203 114 129 148
-0.0259654554847815 0.0006869380361363 0.8751263282391203 114 129 148
-0.0096680413411186 -0.0068017912838108 0.8795932454869374 13 27 56
-0.0349244628373035 -0.0029875169100656 0.8777110986451748 112 101 143
-0.0035380089317449 -0.0595952578951683 0.9529235542056510 106 108 107
-0.0121970722845640 -0.0039412418829165 0.8777504364760287 122 138 154
-0.0121970722845640 -0.0039412418829165 0.8777504364760287 122 138 154
-0.0191874394707990 -0.0031308423021504 0.8771182151487131 13 26 58
-0.0062362038135112 -0.0468112486182724 0.9521557808266844 19 21 20
-0.0062362038135112 -0.0468112486182724 0.9521557808266844 19 21 20
0.0028599481699959 -0.0467357107402810 0.9544413235940606 17 17 17
-0.0149233134525994 0.0170300699008777 0.8451128371206936 152 153 158
0.0318801128526195 -0.0214248066472928 0.9418070895337854 151 193 218
-0.0023685106475362 -0.0351708534648344 0.9483189704252084 185 181 170
-0.0040424768683584 -0.0051409972949752 0.8786246379701819 183 121 122
-0.0039236754075389 -0.0520118174820643 0.9513301090956583 179 177 164
-0.0404297505260242 -0.0016548928406529 -0.3364322838974085 0 255 0
-0.2249296080488560 -0.0013425067830642 -0.3050954399016633 0 255 0
0.1662554050128079 0.0031377487726323 -0.3187774296494675 0 255 0
