5.606166423204327565e+00 1.206894733387236185e+00 1.523851275802925365e+01
7.434705598709117069e+00 1.354026881065330867e+00 1.572074536578464432e+01
9.369314885432681095e+00 1.259882212493745213e+00 1.563396474174746942e+01
-6.758458731843417056e+00 9.584211238257019927e-01 1.169203282244973963e+01
-1.528752250774711818e+01 2.425462571697109215e+00 2.771454542518002029e+01
-5.461387820861532738e+00 1.293184946128635104e+00 1.501434833624496257e+01
-4.811206753045071061e+00 1.221893268460222171e+00 1.516255733103345626e+01
-3.765868788392739280e-02 1.423664553412704814e+00 1.736766049168042514e+01
2.195481950054905429e+00 1.523807238155167054e+00 1.798129673015130692e+01
2.936935726098823807e+00 1.455460477762894111e+00 1.837695736474888974e+01
7.827123436884168228e+00 1.380117435811410109e+00 1.576991037223676351e+01
8.510500725547997192e+00 1.232111105396899831e+00 1.555690010031387693e+01
-1.230901012894446112e+01 1.717868906938947671e+00 1.994508383506971683e+01
-1.599048342173161963e+01 2.161052909819925372e+00 2.636325611418822135e+01
-6.742143696034994527e+00 1.026944996129979693e+00 1.155145341150086580e+01
-2.521083720590770128e+00 1.576945214891825042e+00 1.801896277482427067e+01
2.644803209013926182e+00 1.505440532260204467e+00 1.805992250746190919e+01
4.092461035352593868e+00 1.566017059606090056e+00 1.734473869998067741e+01
8.598541552235037244e+00 1.298177587493646090e+00 1.557350564745310351e+01
8.888966829521770308e+00 1.423875397749734262e+00 1.577041997327431844e+01
-1.282062993891315905e+01 1.859403817888678700e+00 2.158835571284742727e+01
-1.354329959698832120e+01 2.363051232682780611e+00 2.743588567907988462e+01
-1.284307907553430539e+01 2.282737056883079152e+00 2.693685352644795117e+01
-4.155715839565786496e+00 1.785073933355148190e+00 2.039714534892197761e+01
6.714003517652795239e+00 1.231602397441404095e+00 1.528303857813704880e+01
-3.228279335639823611e+00 1.693265187061738342e+00 1.875410107393541637e+01
3.275301257909493113e+00 1.507734357287761284e+00 1.695954822387038519e+01
3.524544201656682585e+00 1.515108290880636366e+00 1.731238323017998937e+01
1.947841507978482767e+00 6.665619751613034438e-01 6.955566402472219245e+00
7.206351422769511572e+00 1.400194992500728430e+00 1.574990606492209899e+01
7.620921568674495994e+00 1.414912258302514214e+00 1.567114690936361576e+01
-1.209997842126054657e+01 2.265906094084532363e+00 2.589137350808819704e+01
-6.746485366768298242e+00 1.631251923306835883e+00 1.727188332203490972e+01
-2.245868604042615679e+00 1.589581000857575033e+00 1.816334556935471412e+01
2.361478392632410994e+00 1.546942330403483279e+00 1.740057386449614540e+01
3.209850795861064920e+00 1.527755793844059573e+00 1.745689990897154331e+01
1.937413947542876214e+00 5.920949613693756719e-01 6.660100966670536415e+00
6.911638342105859145e+00 1.354404232075052228e+00 1.547609847784023707e+01
7.911905025892928656e+00 1.372510811780482731e+00 1.568299329105917472e+01
9.112109193252180717e+00 1.415828850333470834e+00 1.592576142336633538e+01
-1.308890230551542899e+01 2.354047070421642740e+00 2.607272447861373621e+01
-1.259657995041935408e+01 2.342660554942633588e+00 2.594661082328971347e+01
-5.015962692713077153e+00 1.792421775387195826e+00 2.016181656288457802e+01
-3.501503896339626110e+00 1.706881731539934055e+00 1.861910801480575728e+01
8.430451781374165288e-01 1.562606648408881416e+00 1.814243245096471568e+01
1.136950079600643093e+00 1.534571423495854736e+00 1.726142137303845914e+01
2.639802835361316102e+00 1.505098593604031532e+00 1.692990018866784752e+01
2.876821811118644767e+00 1.534064700370039391e+00 1.699084388229803011e+01
3.689657968522245923e+00 1.490051363782130212e+00 1.625386620362866807e+01
8.262329115434591031e+00 1.417571232563409778e+00 1.546323415973706616e+01
8.651951580217962956e+00 1.450664225842985600e+00 1.558855224416984875e+01
9.323398246759525776e+00 1.420653556319473765e+00 1.573473581683562728e+01
-1.368772078305540418e+01 2.311775135914441393e+00 2.521744193881555418e+01
-1.381739279727986869e+01 2.371600882696641488e+00 2.667663527295396264e+01
-1.070481967091818554e+01 2.226002199040372886e+00 2.428180852796137401e+01
-1.026867932789557258e+01 2.245121230153718894e+00 2.449036387122857406e+01
-4.494589305042830496e+00 1.722522531525247480e+00 1.968240182426289664e+01
9.386839193326408370e-01 1.538270106914042534e+00 1.757704169577665354e+01
3.564579643776360829e+00 1.471728220083087679e+00 1.655453800617100057e+01
3.595426671948505071e+00 1.338974016051874383e+00 1.460587536512914930e+01
1.999893332587057371e+00 5.911030833522250560e-01 6.546881761349473194e+00
4.974579452169573202e+00 1.201135160757857534e+00 1.351080817638441722e+01
6.751744249130212872e+00 1.438641706628831729e+00 1.545936061902484226e+01
8.434096460855812438e+00 1.505508848554749424e+00 1.548600621440770020e+01
9.102684352818016578e+00 1.417299717702433126e+00 1.569758969885584854e+01
9.220416007263150249e+00 1.419101467081736567e+00 1.571754533854391944e+01
9.527942184525725722e+00 1.440728168220154037e+00 1.571583601159228571e+01
9.605824110443228037e+00 1.435970752933984462e+00 1.566394089346680829e+01
9.734702372913682566e+00 1.419151743801487564e+00 1.571810218852292884e+01
-4.282551132045018250e+00 1.380719795636433211e+00 1.529244137303874851e+01
-6.256265767630294627e-01 1.575942298089986870e+00 1.693476575070091528e+01
-1.802749769756319120e-01 1.547399579483719423e+00 1.713853703315092858e+01
1.406814343733080452e+00 1.515480806976840400e+00 1.678501421208076394e+01
1.842878352706084133e+00 6.439421223092284263e-01 6.919675302536553829e+00
6.542232096474770664e+00 1.399640753879284327e+00 1.526764385420622538e+01
9.797301041522040066e+00 1.435988267220665859e+00 1.566413194384218066e+01
1.024725346395163150e+01 1.436140401714641079e+00 1.566579146630572161e+01
-1.320241603058710567e+01 2.366543015497772018e+00 2.505723012874309674e+01
-1.296883062749613202e+01 2.365432429959457128e+00 2.541847131650966674e+01
-9.700500144351421383e+00 2.121664648083381621e+00 2.246442975889109661e+01
-0.000000000000000000e+00 0.000000000000000000e+00 0.000000000000000000e+00
-4.124433937097904845e+00 1.791361073484710520e+00 1.924961351132888154e+01
-1.802539973384888361e+00 1.696874442266408822e+00 1.745443620821839659e+01
-1.447150913156006968e+00 1.665193705380087152e+00 1.844318970058677110e+01
-9.898053413933600719e-01 1.634150817308092307e+00 1.756026304133681037e+01
5.551104879327155572e-01 1.537314380152569271e+00 1.702683636803810785e+01
1.590977172425177555e+00 1.538861632936438406e+00 1.653630422135648104e+01
1.858317578531007541e+00 1.550170835473996922e+00 1.690966497195577034e+01
6.150680922642806969e+00 1.475368643365030374e+00 1.562137319264116009e+01
6.328613965973695521e+00 1.448545684123946797e+00 1.556578681183867019e+01
6.501359413997700010e+00 1.446782772505844861e+00 1.554684291057532519e+01
9.379843936426192741e+00 1.435193159726107615e+00 1.565545870535646245e+01
9.977867948042929314e+00 1.499944054287233985e+00 1.565189863562731354e+01
1.007103719385832008e+01 1.483331497739039051e+00 1.570568481225870272e+01
1.019950931046655640e+01 1.442998718711859141e+00 1.574060376443476450e+01
-1.209862682912127418e+01 1.782712193924595123e+00 1.915667435389012851e+01
-1.198093968161782463e+01 2.209098193776978913e+00 2.240389663244589613e+01
-1.043666296641783831e+01 2.179299874900759715e+00 2.274096866552196872e+01
-1.023532481206054889e+01 2.200974460995043014e+00 2.263972358146014230e+01
-3.882949157345794711e-01 1.637549039371933191e+00 1.684420162953887967e+01
7.995692564712387096e+00 1.491356424439756800e+00 1.556228681876733333e+01
9.893620941878323194e+00 1.481047031478041065e+00 1.568149662026375069e+01
-1.113167467370566222e+01 1.663196200795712398e+00 1.735543287205155494e+01
-1.098862346049750727e+01 1.727359731980765867e+00 1.776801482744587801e+01
-1.086592095609201181e+01 1.680406959062190175e+00 1.779234250441298215e+01
-8.976125840213208917e+00 1.514969213554711702e+00 1.515132373130978394e+01
-4.705320916707634638e+00 1.404845144909138366e+00 1.509618941878751563e+01
-4.607514785120482514e+00 1.639847103307682019e+00 1.762147420951787780e+01
-2.038100754322591524e+00 1.690073872047006764e+00 1.763590105670453667e+01
5.906403203139880098e+00 1.486936530458335959e+00 1.551616527684736546e+01
7.241700929046351654e+00 1.511734153012910475e+00 1.555004111105955467e+01
-1.098457219943260910e+01 1.750717920621895463e+00 1.750906469928069598e+01
-9.769764898921280860e+00 1.677656970813709014e+00 1.632579980187590607e+01
-5.173531908728642215e+00 1.401878050706599765e+00 1.506430560848484745e+01
-4.527185367786898063e+00 1.453298306805812512e+00 1.516515080708298946e+01
-4.376890124104938273e+00 1.547727293735711607e+00 1.547893981300820343e+01
-4.500289950412708961e+00 1.829279226177581874e+00 1.936861922216934673e+01
-2.169657986946529782e+00 1.743099590377115593e+00 1.696264221012119577e+01
-1.298501136956240032e+00 1.673333843668549425e+00 1.746121905667377305e+01
1.336129062876723617e-01 1.509742937639320548e+00 1.489263181603257635e+01
3.070308882359052416e-01 1.572597110305615997e+00 1.641003242409626850e+01
3.947970850082770600e+00 1.218638950816026023e+00 1.110977112806975242e+01
8.164162331409182016e+00 1.551337440384468858e+00 1.551504516756157059e+01
-1.047241883237316173e+01 1.697956657138258052e+00 1.722007900783216883e+01
-9.958690801096135914e+00 1.677193286536391659e+00 1.654442056192969090e+01
-7.450868999637778600e+00 1.870459424777440871e+00 1.845086527352470540e+01
-6.424181486048825107e+00 1.714301870789063376e+00 1.691047260212230441e+01
-5.053570748446571947e+00 1.511245727586788323e+00 1.511408486150026320e+01
-4.878383168068480380e+00 1.491267449729632322e+00 1.512390978779951922e+01
2.259759385407878352e+00 1.554870773831233510e+00 1.555038230736851190e+01
2.062801387943633546e+00 6.402722039487410699e-01 6.493415419153650170e+00
3.285945599016976360e+00 1.015184277122211487e+00 9.494902242383572499e+00
6.891682568850522550e+00 1.516641919637946145e+00 1.538124873385922875e+01
-9.833646294868977122e+00 1.747150523017871215e+00 1.700206309082232181e+01
-5.609689763000289986e+00 1.546862323434631925e+00 1.525879040641567030e+01
-5.322020570366497338e+00 1.508113849005749296e+00 1.508276270271055530e+01
-3.005063370588626714e+00 1.722719718648648479e+00 1.772028659564897879e+01
-2.686663482242575895e+00 1.692151854668611399e+00 1.765758478101877671e+01
5.048748400460464358e-01 1.615880738646190196e+00 1.616054766219989247e+01
7.094310367653725580e-01 1.571485976412767327e+00 1.571655222747099678e+01
9.219403158351697769e-01 1.583582216994986913e+00 1.562100826581718671e+01
1.907623677630500003e+00 1.560022015954821928e+00 1.560190027640348198e+01
2.088299617987209977e+00 1.589819822313741637e+00 1.568253818399729482e+01
3.564373905467602022e+00 1.475844514547891784e+00 1.417078030213853879e+01
4.519344833146972107e+00 1.207103797070899542e+00 1.241654402816701896e+01
7.643680479430567054e+00 1.562063167139669417e+00 1.540873683964499463e+01
-1.014479069926468924e+01 1.780392755814139472e+00 1.780584501048978652e+01
-1.112519681088002876e+01 2.281489483022092202e+00 2.250540937513944328e+01
-1.034596432216899409e+01 2.221716485178177880e+00 2.162021151198374724e+01
-8.058758365427133585e-02 1.603091349325541648e+00 1.625798843339397948e+01
1.101797366454979610e+00 1.593490976760441491e+00 1.571875173410005466e+01
1.245005292618649895e+00 1.555414046439584252e+00 1.534314758996679195e+01
2.863268234562089898e+00 1.599581892843289221e+00 1.577883465840638699e+01
3.354273193741856840e+00 1.549398857578871302e+00 1.528381166543743497e+01
1.956450368743970714e+00 6.706093003559358001e-01 6.525906888806289885e+00
7.761565822781427038e+00 1.557633839967380585e+00 1.536504440888404233e+01
9.337606517956896113e+00 1.594094327348970941e+00 1.551262582659109945e+01
-1.023975024901123732e+01 2.218339415335806031e+00 2.188247504389498133e+01
-4.663325611242176372e+00 1.796650743329734068e+00 1.748376507222812748e+01
-4.729022899438621863e+00 1.902505206132451221e+00 1.851386764856951217e+01
-3.653240916021401219e+00 1.800916447234161000e+00 1.826426097362477563e+01
-7.245261163420019246e-01 1.636637275757183652e+00 1.550830635468841656e+01
1.674276978038245156e+00 1.583594104817902304e+00 1.541044490766687858e+01
2.402700744628858409e+00 1.581392788596750698e+00 1.538902321744512136e+01
2.932116824754459117e+00 1.578912245738901765e+00 1.516041719176379488e+01
3.156306379244246951e+00 1.570740170832601867e+00 1.528535929328841547e+01
3.376924811037202545e+00 1.536078352794111979e+00 1.436676485747611309e+01
1.834504982254979710e+00 7.459737278241542757e-01 6.977006816097611086e+00
8.730059508553045688e+00 1.604214097502536296e+00 1.540336079391525814e+01
-9.236292128265011669e+00 1.708849258360681578e+00 1.640804784718111620e+01
-1.161497655417628927e+01 2.301338214388077841e+00 2.239503522956977832e+01
-4.104376991081720938e+00 1.847161325272063115e+00 1.847360261366889844e+01
-1.458815411229420267e+00 1.691972942726116758e+00 1.603265129562727154e+01
-1.298565403685649322e+00 1.669292819859676591e+00 1.624440565732562192e+01
2.525555328907280739e+00 1.551408146857910841e+00 1.489632802870571204e+01
2.160595362674354813e+00 6.980243276374173966e-01 6.528541569330213790e+00
7.336000116205636523e+00 1.560044150637221128e+00 1.497924930600742677e+01
8.881666221029533403e+00 1.588783965377447149e+00 1.546094904884043686e+01
9.014354607593377366e+00 1.633855879324785265e+00 1.548195063824079121e+01
9.535491220289083358e+00 1.626002292540731364e+00 1.540753229788257528e+01
1.026784804567864917e+01 1.632848159439647340e+00 1.567829964883448923e+01
-1.106978861534961744e+01 1.740114936166105686e+00 1.716510169765863836e+01
-1.116683805896983728e+01 1.804095404778855993e+00 1.755621137950402044e+01
-6.711629571664179394e+00 1.258777283274448378e+00 1.147569385421997445e+01
-1.042131579510538408e+01 1.944373311578520669e+00 1.892129915541970320e+01
-1.094377670654766099e+01 2.327016750714585580e+00 2.176432108174209645e+01
-1.030762751306559544e+01 2.253433926487586447e+00 2.107610935654243178e+01
-4.418735088431772873e+00 1.910334413129386233e+00 1.810178208547037570e+01
-4.270961386506598956e+00 1.887382167917356135e+00 1.836670067785319560e+01
-3.784368379364533741e+00 1.870072019081399084e+00 1.819825025601312163e+01
-2.720366369543776752e+00 1.783700761246000521e+00 1.668274887560843922e+01
-2.569493739343740035e+00 1.734196794632294925e+00 1.687600634621366780e+01
-2.250679037556369888e+00 1.705651845977168124e+00 1.637734689733479243e+01
1.460374101289288795e+00 1.601983048002999510e+00 1.538193867797452974e+01
6.928618162509409650e+00 1.557397540666177527e+00 1.515551802494983313e+01
7.278457116519190251e+00 1.563360042916522197e+00 1.521354098181815395e+01
9.097266027909622466e+00 1.610877457272628988e+00 1.546734111599208283e+01
9.231225193056022960e+00 1.635642463593777851e+00 1.549887979938261040e+01
9.431575515597245385e+00 1.630111719870745990e+00 1.544647205498099041e+01
1.001205907235339687e+01 1.587621645924637281e+00 1.544963815810262631e+01
-8.785659103679254400e+00 2.152898273200598567e+00 2.067172262501173208e+01
-3.321701399599485960e+00 1.811926077024328174e+00 1.739777199300237953e+01
-3.062515016482506791e+00 1.794996445720104639e+00 1.723521687053282037e+01
2.045734060833209078e+00 7.190683083991826763e-01 6.555415224840635879e+00
5.746512560326662467e+00 1.589315485760571134e+00 1.486468566315901541e+01
6.075209177467103316e+00 1.613261221820901037e+00 1.528680155874035229e+01
6.382691008008423594e+00 1.576082738310936815e+00 1.513324879581847959e+01
6.607899943328866321e+00 1.585133362239303567e+00 1.522015117748668089e+01
9.681316879676492348e+00 1.634793748887342746e+00 1.549083762176018553e+01
1.024572725080217594e+01 1.723749500182817584e+00 1.551855675564669390e+01
-9.362975473531321313e+00 1.897464131873138005e+00 1.729830825997828114e+01
-1.085074030353971253e+01 2.324863211891160741e+00 2.119470920479317755e+01
-7.617356442553871787e+00 2.114866776162170670e+00 1.835273025134663882e+01
-4.812518952789069715e+00 1.672550782887477716e+00 1.584861246838744364e+01
-1.006661855021610874e+00 1.648025751234238001e+00 1.521655247979838066e+01
2.021443304368472305e+00 7.511444530266595532e-01 7.025368016548026340e+00
4.320503984060032998e+00 1.280628391945691780e+00 1.167490036741203774e+01
6.148192890382690123e+00 1.585628070438365178e+00 1.502495772594143197e+01
6.837461555049101136e+00 1.611782598505328234e+00 1.469388104295299868e+01
8.572321814394394224e+00 1.658256936597798825e+00 1.531101906740999752e+01
9.782218399666430031e+00 1.637897383362663106e+00 1.552024677366525296e+01
9.888000733927906793e+00 1.659920888518847226e+00 1.552504990646106897e+01
-1.065579997354019248e+01 1.879292938283808390e+00 1.713264984099690835e+01
-1.000991408978865849e+01 1.859203340623706735e+00 1.653174897377499875e+01
-7.712966291424065979e+00 1.467724351255932147e+00 1.305077825942372627e+01
-5.615236139138358062e+00 1.829043583304970522e+00 1.626357306949975623e+01
-3.567779024936549082e+00 1.857497162411791303e+00 1.672265902631610501e+01
-2.426914897988590447e-01 1.631372700584218904e+00 1.506279152128485421e+01
-5.196546181577812312e-02 1.637322477495147588e+00 1.455881860560164043e+01
3.038037262686261286e+00 1.179447094719800804e+00 1.103123355709702835e+01
6.561927024642756123e+00 1.639247770605372301e+00 1.439849860166932061e+01
-1.089667380206659608e+01 1.894331422842759904e+00 1.684410245576729181e+01
-1.072208764134503589e+01 1.857640433686143400e+00 1.672394886767776967e+01
-1.033188436210221361e+01 1.863330289936990569e+00 1.677517345521260594e+01
-9.748671940873208541e+00 2.051698348707304831e+00 1.847101174880926067e+01
-8.689755003765544217e+00 2.167760674322451120e+00 1.927539313214539973e+01
-8.453924731890033684e+00 2.109341162397800673e+00 1.922989375119191990e+01
-7.386314448505316932e+00 2.088553071610681044e+00 1.904037828339911442e+01
-4.721314470545520336e+00 1.856596205285373946e+00 1.611146845056090271e+01
1.730507561923388504e+00 1.587979267447432896e+00 1.429624570510949688e+01
6.243325947101660667e+00 1.620265553365747513e+00 1.423176637650949239e+01
6.454998601539617908e+00 1.605340545444267519e+00 1.445254566511868966e+01
6.928174898685425909e+00 1.659927419997460962e+00 1.458014039383417604e+01
7.522915690779335307e+00 1.623860353107483112e+00 1.461927562576250139e+01
9.382208446625973863e+00 1.732041671510375025e+00 1.521356321629478892e+01
1.007999424794712517e+01 1.742485806438653473e+00 1.549391468538672711e+01
-1.073584884108662685e+01 1.927199542273825505e+00 1.692775211420287107e+01
-1.070997383100584521e+01 1.940704263173407496e+00 1.704637219621570310e+01
-8.464037776744689268e+00 1.734719236121942343e+00 1.523708187589393681e+01
-8.229865142201283845e+00 1.767498723607946909e+00 1.533828402791491996e+01
-7.564135554423371488e+00 2.138342295811573202e+00 1.855644988252714711e+01
-4.524013481121855307e+00 1.804820676780196198e+00 1.604818672561095028e+01
-3.697888132329654631e+00 1.881188059634859799e+00 1.652360560242007992e+01
-3.079087107450037664e+00 1.859835152322918628e+00 1.633605018121672003e+01
1.234412912581623889e-01 1.564352574023761377e+00 1.374064906690751542e+01
3.289065812766582830e-01 1.633258487096549416e+00 1.434589112415849854e+01
1.402093855198806027e+00 1.635697081400323327e+00 1.454436583454886645e+01
6.133423391491184873e+00 1.641507281733655121e+00 1.424493527764839662e+01
7.006475454139788894e+00 1.642696621967796311e+00 1.442879193645963731e+01
7.702563561766468503e+00 1.677851372648015538e+00 1.473757724493331622e+01
7.769734312335809356e+00 1.687725697147692161e+00 1.464601685890893812e+01
8.068571178560407731e+00 1.666146818324421019e+00 1.463476910812602938e+01
9.068575168794778207e+00 1.699126258960456326e+00 1.492444736079580458e+01
9.949025275766587129e+00 1.755953771375726280e+00 1.542359756415123861e+01
-9.877991172259331876e+00 1.908357575561225428e+00 1.617165733972262842e+01
-8.932210732306746337e+00 1.779824073703089482e+00 1.563326477910498191e+01
-8.787440696976728916e+00 2.171201434105233030e+00 1.907096741169371157e+01
-7.866544768516222419e+00 2.094830032732344804e+00 1.840015148283082524e+01
-6.015688127612695446e+00 1.948794369101210622e+00 1.691156047018784747e+01
-5.469247043586156209e+00 1.920254352074548088e+00 1.686674833358727099e+01
-5.360893693449355624e+00 1.946510431579719702e+00 1.709737126370168525e+01
-4.304577631050693576e+00 1.853293387923192759e+00 1.589167694896143068e+01
-3.306656427578106516e+00 1.889279882115336262e+00 1.639509610561868413e+01
-2.322536111758932265e+00 1.809882801490525939e+00 1.609319835675240640e+01
-1.800094163217062393e+00 1.748763997286886696e+00 1.554973938881998485e+01
4.933174475938004178e-01 1.648358980294603482e+00 1.447852783356601236e+01
6.611246501864505021e-01 1.634747814076165318e+00 1.418627688461915248e+01
2.067494893323213123e+00 1.617388935511390846e+00 1.420649931261823440e+01
2.235001428325714024e+00 1.619512123464167397e+00 1.405406216398205110e+01
3.065834606000387819e+00 1.588302103482897465e+00 1.395101218138694499e+01
2.920099676481060502e+00 1.347482240415874166e+00 1.183574655540765264e+01
1.936767057254801916e+00 7.619854882914951499e-01 6.612479934756001043e+00
6.124802162181048892e+00 1.651558536245349318e+00 1.450663145689182976e+01
7.987076311455066246e+00 1.684729829275645407e+00 1.479799486447230450e+01
8.838552211687145999e+00 1.696280876909545432e+00 1.489945465974358818e+01
-9.641847550630066266e+00 1.885316753601727902e+00 1.616627188654549840e+01
-8.423237820420725441e+00 1.812511704653576139e+00 1.535944761467151309e+01
-1.057349497403520111e+01 2.310480595137816451e+00 2.029434001059541970e+01
-6.318407875744704860e+00 1.970637028776109911e+00 1.669942110349221664e+01
-5.671770794943422622e+00 1.967840503302893840e+00 1.687389906495867464e+01
-5.061923820158521714e+00 1.941692814301609671e+00 1.664968705984492203e+01
-4.276508524763661612e+00 1.921164646660530329e+00 1.647366149873733576e+01
-3.979223162027973437e+00 1.869560837991348423e+00 1.603116757842737883e+01
-3.908260817486934435e+00 1.902692840460355583e+00 1.651149322772270622e+01
-2.847407307710517532e+00 1.858272229042219115e+00 1.612601291844461571e+01
-1.548447191844699811e+00 1.768496345568485006e+00 1.516455667102286498e+01
-3.897494668372388227e-01 1.685593935979332381e+00 1.428393079769425356e+01
8.596103646869065473e-01 1.637447369620263382e+00 1.420970352087719135e+01
1.008674497263471803e+00 1.643028817502486305e+00 1.408869386559627124e+01
1.189823450817721007e+00 1.651092905165757907e+00 1.415784205166756671e+01
1.521568825846356443e+00 1.632248323593394668e+00 1.416458640505176270e+01
1.896752682636936527e+00 1.638974832856740838e+00 1.422295878643996403e+01
2.543204031516545172e+00 1.612620316041712742e+00 1.399425533170580316e+01
5.418883810149329072e+00 1.613791019704578611e+00 1.400441465179679668e+01
5.697534126091809981e+00 1.656416083075068491e+00 1.420348740076764216e+01
6.988387191707278845e+00 1.656391539799915602e+00 1.403646609267246603e+01
7.442309473641105733e+00 1.657931453372212260e+00 1.474207043629807323e+01
9.059303772692034684e+00 1.756721114687289198e+00 1.506358606033445469e+01
9.837837440664181088e+00 1.772942465970291703e+00 1.538552460886311657e+01
-9.444760843472181477e+00 1.856906130831900370e+00 1.631032282468225603e+01
-8.853900332852163046e+00 2.168173688594884130e+00 1.881532552942136860e+01
-7.056669892092486407e+00 2.078887909867243700e+00 1.782611177053476936e+01
-5.689205166658775958e+00 1.807273218731355602e+00 1.549706179158865993e+01
-1.284877047294881391e+00 1.702835930259313013e+00 1.477714286431897328e+01
2.340569925727052247e+00 1.613931685317672615e+00 1.367665605173745469e+01
2.691770702276926386e+00 1.647659551670076938e+00 1.380039100242679417e+01
2.870904963677194388e+00 1.618964824801241376e+00 1.388234920338448575e+01
5.838111059287995452e+00 1.629670591004131586e+00 1.414221694357830827e+01
8.533144927905738086e+00 1.714027209236215210e+00 1.487426034072255554e+01
8.626337866742897376e+00 1.734729680704618193e+00 1.487501323814970178e+01
9.588856607170018975e+00 1.769963286064866193e+00 1.535967140345519510e+01
9.731836236771048476e+00 1.773671577955840517e+00 1.539185181384105228e+01
-8.603162117606004244e+00 1.824211350050767511e+00 1.527914542555110877e+01
-9.235275444410833146e+00 2.238449389715199800e+00 1.919432443873159855e+01
-2.588986990352235118e+00 1.849606881687854365e+00 1.586006578229775421e+01
-9.898613952637334013e-01 1.692904598700717411e+00 1.434588225478517742e+01
3.182661554543335214e+00 1.641779532695800015e+00 1.359334711780692651e+01
3.350174308179096005e+00 1.456901537753024778e+00 1.220264881337242358e+01
8.280137657887777891e+00 1.708573206624673269e+00 1.465072590247417139e+01
8.581676787791391092e+00 1.703577889409059409e+00 1.460789190329982645e+01
1.017680529560193570e+01 1.809733814836256949e+00 1.551816098648989595e+01
-6.093438062800891064e-01 1.668046956948568971e+00 1.430322017456170869e+01
3.329184722876626257e+00 1.595639340527249539e+00 1.321132283516797656e+01
2.179494863070087884e+00 7.734506062991538533e-01 6.554315781512896066e+00
-1.024890749967445558e+01 2.032667752454317078e+00 1.645218422554076909e+01
-9.657325821448660363e+00 1.979687672320900038e+00 1.602336941427294548e+01
-9.007806148441316552e+00 2.225125916535810155e+00 1.821423815065505636e+01
-2.361218499685052929e+00 1.848170046777318110e+00 1.547981757435747063e+01
4.335872545885909979e+00 1.465666330550821739e+00 1.173134152500476723e+01
-8.460115654709273514e+00 2.192846074587682104e+00 1.735919418418827931e+01
-2.047843579722899321e+00 1.841352676179482506e+00 1.457667231539934605e+01
-7.564407094690287492e-01 1.738109977392702010e+00 1.406806671566848088e+01
-1.989311569849896988e-01 1.722176748192193463e+00 1.348528910516001389e+01
1.654085358202545875e+00 1.648654835218640979e+00 1.349541236014722401e+01
2.063622660108354712e+00 7.796819187051321487e-01 6.530423912359111682e+00
5.047604891950565609e+00 1.642910231765662532e+00 1.329753067927515708e+01
8.005312508832018281e+00 1.785506486065541853e+00 1.429137447352975521e+01
-8.902298547422466513e+00 1.923281937816669895e+00 1.539414312186656275e+01
-8.238543958813883350e+00 1.859667478320875533e+00 1.522270091748286625e+01
-8.170145801636280680e+00 1.903214293196398232e+00 1.523351966498851695e+01
-8.936335749981051180e+00 2.239992291412395975e+00 1.773241706672185458e+01
-8.038817244111637450e+00 2.117252524365330402e+00 1.713680385827468200e+01
-7.414238224150266454e+00 2.088897847106523820e+00 1.671974960770520013e+01
-1.933802235819576332e+00 1.863582004140690307e+00 1.508362319149557251e+01
2.396493388426405247e+00 1.143329462252654860e+00 9.050921713909742650e+00
6.451075098928979124e+00 1.692117761884746496e+00 1.339528622253821055e+01
6.966607164556380738e+00 1.685786110751080091e+00 1.349320250530561260e+01
7.571057308264603769e+00 1.731506919601266237e+00 1.385915648285207169e+01
7.932926808024492793e+00 1.763661503150947052e+00 1.396164685846967757e+01
8.855693946537067873e+00 1.799785076431688724e+00 1.440566175474058674e+01
-1.064289381111135313e+01 2.072713210608069456e+00 1.659020614050276521e+01
-1.035759162426023927e+01 2.077211295298819760e+00 1.644379633142355601e+01
-6.730204810532397275e+00 1.468383419941914347e+00 1.149799226817249931e+01
-9.427434732499872183e+00 2.255877402892492611e+00 1.825881803743322962e+01
-8.524921851242812210e+00 2.248862338041691444e+00 1.780263488257547877e+01
-7.438801291796510284e+00 2.143614544022696577e+00 1.642872461687894869e+01
-1.140118877941367570e+00 1.769139723030385136e+00 1.448166685651057684e+01
1.314902576972478476e+00 1.696014667580448165e+00 1.342613523810437393e+01
2.284860560091728221e+00 8.467825530455102001e-01 6.630624614466015032e+00
6.179949672733357602e+00 1.703194777084459988e+00 1.333665316030575632e+01
6.849761989011558860e+00 1.729656925478977092e+00 1.354386169556109465e+01
8.266297200815021284e+00 1.753332618505272222e+00 1.387988046531138764e+01
9.375299284875136863e+00 1.837144447294141392e+00 1.470468993708413130e+01
-1.042449736752859657e+01 2.073267641935988337e+00 1.641257724800777495e+01
-7.153996192971944446e+00 2.080610488412134806e+00 1.647070531240832025e+01
-6.984294830227053552e+00 2.075727502178458028e+00 1.643205020240701586e+01
-6.405896001957800401e+00 2.036214766887343597e+00 1.611925613417956171e+01
-4.154261617311218124e+00 1.886842301836562319e+00 1.477468207767954134e+01
-3.044725595736686330e+00 1.838376771959375766e+00 1.424063457124291432e+01
-2.807119732226863729e+00 1.852582197814722553e+00 1.466556840752397406e+01
-1.672496897470373556e+00 1.841734163497808163e+00 1.442146845594635352e+01
-4.842938233217695260e-02 1.711159014309939774e+00 1.354602220085863351e+01
1.191643502588539821e-01 1.709250879650513255e+00 1.324038550690323035e+01
7.577989006500982505e-01 1.697134576326490230e+00 1.343500075475709821e+01
1.482717957354687588e+00 1.695229571695664461e+00 1.327428261816329425e+01
2.866556150506446077e+00 1.655104362443887478e+00 1.310227760886631287e+01
1.935694330413374242e+00 8.959804665519252032e-01 6.794649119046551000e+00
5.147303783078641004e+00 1.664057284733859277e+00 1.317315149205795066e+01
5.476886242015964967e+00 1.686729404948079880e+00 1.335263045409130811e+01
5.994884781258832618e+00 1.678005871115101355e+00 1.343092868048373489e+01
6.107805958954911851e+00 1.723732587096137081e+00 1.349747190663074470e+01
6.554571464009590009e+00 1.704598740296274562e+00 1.334764671821100812e+01
7.397682337337195158e+00 1.736933522647764461e+00 1.375006055102984348e+01
8.183682549743320322e+00 1.791069238772409422e+00 1.387417580019104690e+01
8.649285956157054756e+00 1.795464406271371827e+00 1.421340769899843615e+01
9.102062047185558669e+00 1.831390462126500029e+00 1.465863445793148934e+01
9.045072568818181225e+00 1.821937839542942639e+00 1.442297893804208719e+01
9.282771829047661072e+00 1.874109438152443241e+00 1.467497898501081188e+01
9.493698343830100583e+00 1.861907239174322326e+00 1.473938809127323957e+01
9.580576301017794449e+00 1.862552132276329875e+00 1.474449324877404344e+01
9.832395674536085650e+00 1.876195062588057905e+00 1.485249457146933061e+01
-1.081703057380752853e+01 2.108783898651060085e+00 1.669373405338379257e+01
-9.877977137958675158e+00 2.066019796329611413e+00 1.600402778431855921e+01
-6.788046609565751233e+00 1.481663186677945498e+00 1.147742090793244429e+01
-6.200607708626614922e+00 2.032459812674937805e+00 1.608953084699170333e+01
-4.449005711474744551e+00 1.944103672893212176e+00 1.522306006447291082e+01
-3.318830857388283206e+00 1.886094661725821631e+00 1.430315939928034297e+01
-3.240093973973473318e+00 1.856635697764592585e+00 1.453815305171097449e+01
-2.577762319945695157e+00 1.833979166251080706e+00 1.436074392230506547e+01
-2.426704181800914295e+00 1.874921417429016968e+00 1.436945262902803044e+01
-1.474461127863196719e+00 1.826894912262304604e+00 1.385421933802204109e+01
2.720947870957860504e-01 1.704193250795407621e+00 1.349087923259870792e+01
4.358430415409959569e-01 1.700404087749192161e+00 1.331480101735452948e+01
1.724787664299730627e+00 1.684006246638541038e+00 1.304483277848974510e+01
1.918966426638479827e+00 1.696929363204882302e+00 1.328759262246126305e+01
1.969055171618218303e+00 8.501782851479415815e-01 6.657214468946997421e+00
2.217392980776274669e+00 9.626307519902144172e-01 6.669237212569756323e+00
5.700186556800735715e+00 1.711418334655066209e+00 1.354807505458107819e+01
5.723317842988636883e+00 1.688980862884131184e+00 1.308336769318522919e+01
6.409068342802422436e+00 1.730109116481325815e+00 1.354740252051058214e+01
7.203515710094971602e+00 1.754341476299785318e+00 1.373715097588556944e+01
7.455794562792671165e+00 1.737454203872142999e+00 1.345885717172221163e+01
8.117533055158236976e+00 1.801915260268303953e+00 1.410967152658708557e+01
8.158205115097990401e+00 1.787143760651631608e+00 1.399400515084679775e+01
8.501138767329864621e+00 1.822049737720344620e+00 1.411416031864321319e+01
-8.771159585971131989e+00 1.996322348382162826e+00 1.529987291770510360e+01
-7.168646034147245771e+00 2.140686572074836924e+00 1.557890450079440647e+01
-6.421112947439549856e+00 2.078437886134091084e+00 1.576179021665707580e+01
-5.368112962372533659e+00 1.947805515164254597e+00 1.541938331313421884e+01
-4.967743145294254425e+00 1.974129451839504501e+00 1.529221677992116746e+01
-4.710770830777138762e+00 1.974673146232529097e+00 1.481914089181435301e+01
-2.154628493651899568e+00 1.814919992947148231e+00 1.362025666585299177e+01
-1.138502616350951513e+00 1.833037091834832655e+00 1.419927175892892990e+01
5.839343474657636701e-01 1.717350586680858049e+00 1.330312834053375504e+01
9.192775559447279310e-01 1.705533447471791142e+00 1.307125826866640139e+01
1.107856701646090958e+00 1.699212521920162366e+00 1.316262528586814007e+01
2.036708905425709482e+00 1.696673961577408907e+00 1.300335890942209005e+01
2.191146502761346593e+00 1.676816338551953223e+00 1.298913752862385707e+01
2.393582512116303018e+00 1.709947653281661317e+00 1.324578293076726254e+01
2.039191750699973493e+00 8.481518437100229457e-01 6.570046277470739327e+00
2.107285902830524638e+00 8.738871389341830165e-01 6.558177316645008581e+00
5.295964033889468681e+00 1.688336573241822736e+00 1.322030785799477570e+01
5.608736961106735919e+00 1.700612949019254083e+00 1.303354742448505554e+01
9.620403298425621585e+00 1.872682602225649973e+00 1.466380632517863525e+01
-9.684956609995916565e+00 2.027175599624561730e+00 1.587354437142390573e+01
-8.353871591372836747e+00 1.910900549996837672e+00 1.512723309605965483e+01
-5.697833108684514869e+00 1.991694113332044713e+00 1.559571104157687849e+01
-5.094865447338309039e+00 1.967585181382308424e+00 1.507963042857555003e+01
-4.538586170648401641e+00 1.964864069984120221e+00 1.490050555849937197e+01
-3.794811137528728562e+00 1.904150946573715864e+00 1.459346859604892366e+01
-3.535075048026503186e+00 1.893853601419137833e+00 1.406632050423776192e+01
-2.904267292835062797e+00 1.909333519754552677e+00 1.418129533255722841e+01
-1.279014954915894231e+00 1.847879974995016772e+00 1.401335912212769941e+01
2.502357248194408523e+00 1.694599311938402852e+00 1.298745873385611382e+01
2.354583147449151426e+00 8.561639365644807542e-01 6.632110424620289102e+00
7.178497752088591533e+00 1.725503957788699250e+00 1.351134240274949860e+01
-9.338996499386583494e+00 2.060968177663916823e+00 1.562930904804000320e+01
-8.622541222150449158e+00 1.966230272131407997e+00 1.523102729289578150e+01
-8.307202914725902332e+00 2.093910477001186266e+00 1.604779119220507511e+01
-7.365704178907429345e+00 2.111088465212209719e+00 1.567980066791991334e+01
-6.367237255138889829e+00 2.060519924386094104e+00 1.530421023043374440e+01
-3.843342617911188253e+00 1.906103676800978253e+00 1.415730614663003450e+01
-5.848854593469874352e-01 1.769668088865259836e+00 1.370839587962161943e+01
2.599548270688182949e+00 1.658386007074082125e+00 1.270991890527921520e+01
-6.747813023319766401e+00 1.609230869023851040e+00 1.147965060412147587e+01
-7.728232236585566461e+00 1.975552203491093728e+00 1.467312491648545425e+01
-5.652010928545896817e+00 1.998532006559179175e+00 1.499819220133021780e+01
-5.184198101532026648e+00 1.971840782866489228e+00 1.435012469727156059e+01
-8.636854089813641444e-01 1.791800608205569079e+00 1.358808241758189972e+01
2.999785776083718325e+00 1.707269324286578627e+00 1.308456207939043914e+01
3.070702212840696887e+00 1.715769442204765349e+00 1.274362647004209670e+01
2.021109409967254411e+00 9.392965224570146709e-01 6.767497977269513854e+00
-8.191470779719157491e+00 2.024152184908727836e+00 1.488091325116681674e+01
-7.864696915470799965e+00 1.981300183569566054e+00 1.471581719743852190e+01
3.229827069921649585e+00 1.740062965192753053e+00 1.279238104212458005e+01
-8.488611104899009163e+00 2.019738292901430921e+00 1.515733699230363207e+01
-5.415869088696205758e+00 1.995731880704697092e+00 1.467197635176514048e+01
-9.705180969779151345e-01 1.802404165798238811e+00 1.298606590638148361e+01
2.945354884750290281e-01 1.760124684396186190e+00 1.280935505711224032e+01
1.518819767058797066e+00 1.718588446520739721e+00 1.250707396111943481e+01
5.727971022582517335e+00 1.756091141292920765e+00 1.252729680935350132e+01
6.826082875636404701e+00 1.792412222025006274e+00 1.304432848659363486e+01
8.441678219025947172e+00 1.848657305169693732e+00 1.359073156379617231e+01
-9.900133914245621725e+00 2.215792524960033205e+00 1.580663439124488434e+01
-9.425041988263311410e+00 2.139891631060418131e+00 1.557311929603395839e+01
-8.037799072477030293e+00 2.053786232898368258e+00 1.479723798032026494e+01
-7.986628167717660709e+00 2.228372168903734352e+00 1.605510484187897902e+01
-7.562250708572850755e+00 2.171210119170434716e+00 1.580104044139916297e+01
-6.337648692000832362e+00 2.066171051593948871e+00 1.488646883923151520e+01
-1.652624314891482982e+00 1.842290059898407106e+00 1.314220762612420756e+01
-6.005027261103766945e-01 1.813405961267994027e+00 1.319711099247168384e+01
-1.944808178321428271e-01 1.791347031610722285e+00 1.316940493846135318e+01
7.466230272208788099e-01 1.748070982881352542e+00 1.259460304380554874e+01
1.332828410564690147e+00 1.733863942846557871e+00 1.236873629638776606e+01
5.180895125415577063e+00 1.745749046454907027e+00 1.257787382178286606e+01
6.116718598937042728e+00 1.759978340046311152e+00 1.268039386023239423e+01
6.786274861854876939e+00 1.739699194679691363e+00 1.253428549938127290e+01
8.975985278132364797e+00 1.891823545490584957e+00 1.376779708529968005e+01
-1.053258767822680220e+01 2.252420327761406771e+00 1.622836840938441583e+01
-1.034656948935542964e+01 2.236749247998766066e+00 1.611546050643819328e+01
-1.011613750363073017e+01 2.177281154086442072e+00 1.600666798619278808e+01
-9.583355728524198369e+00 2.171889561953633585e+00 1.564815568456086403e+01
-0.000000000000000000e+00 0.000000000000000000e+00 0.000000000000000000e+00
-7.821449983560047947e+00 2.101998346655169048e+00 1.514459940935607563e+01
-7.538003316429371381e+00 2.160119996790021091e+00 1.540948741628813323e+01
-6.505360998774765591e+00 2.092177236395917905e+00 1.463541728367039951e+01
-5.914771170223239061e+00 2.049202221904314225e+00 1.461824153231693302e+01
-5.538940687493894011e+00 2.024826033937705994e+00 1.430294205771674321e+01
-2.475964083209452493e+00 1.835396298598174880e+00 1.309303011368754355e+01
2.219476803423253042e+00 1.731983598313921124e+00 1.235532262239881618e+01
2.829583044339808229e+00 1.502466944704947904e+00 1.071803673510010668e+01
3.422862564700767329e+00 1.759961283696721557e+00 1.243199358494292461e+01
3.387486251907327883e+00 1.331381084055177189e+00 9.404593867725406398e+00
4.563810890889562266e+00 1.727531761576594826e+00 1.232356488565958941e+01
5.235533326940091214e+00 1.732970774572735406e+00 1.248580818856899022e+01
5.476057922294746305e+00 1.727183611578386513e+00 1.244411250150742454e+01
5.586932830534922623e+00 1.747223184097798754e+00 1.246403612244282932e+01
6.295006982620750868e+00 1.747081972112002113e+00 1.258747736174343856e+01
6.615320737633719084e+00 1.781281878585808887e+00 1.283388282833546867e+01
7.297655958663120224e+00 1.822662773261351843e+00 1.300219391072921660e+01
8.277231889025502554e+00 1.883748703511378464e+00 1.343795806961799855e+01
8.785158261770448007e+00 1.886500272064821404e+00 1.372905681878265938e+01
9.134280556371436433e+00 1.913713285373644046e+00 1.378803229672620922e+01
-9.001598629593564382e+00 2.171959203576705466e+00 1.549394388549787394e+01
-4.736783613344548449e+00 1.964171270676305037e+00 1.415157491112834087e+01
-3.992605108741937858e+00 1.922412325159586599e+00 1.357951331963366570e+01
-3.151108065228877653e+00 1.868276549034679546e+00 1.319710966806747265e+01
-1.880847330435892584e+00 1.820650623079347330e+00 1.298783998457911615e+01
4.852336938598066918e-01 1.772525925522493218e+00 1.264453640768662268e+01
6.113551358688497084e-01 1.780076901251804511e+00 1.269840224183214517e+01
1.221741031180322290e+00 1.753304285382244254e+00 1.263230824471120428e+01
1.777804980185001771e+00 1.739135153573865944e+00 1.240633914043891117e+01
1.997832707145340558e+00 1.743134217500441174e+00 1.231313075486625053e+01
2.698917351669999132e+00 1.736463997587194275e+00 1.238728411357710435e+01
2.826932319811888306e+00 1.726291471334261862e+00 1.231471711937337510e+01
2.367163085078438201e+00 9.674561330803340686e-01 6.833905127109022537e+00
4.687965022428105755e+00 1.727522035056463734e+00 1.232349550030609464e+01
4.772542969120689982e+00 1.713879017790813641e+00 1.222617132239577131e+01
4.910834604444545448e+00 1.732280698170801214e+00 1.223646379410406837e+01
5.916526576125829884e+00 1.753838995625939257e+00 1.251123084525587181e+01
6.073844859968507315e+00 1.751116813845730924e+00 1.236951812399484041e+01
6.837500369843723114e+00 1.780765090776053050e+00 1.283015944559787513e+01
6.949457532895207734e+00 1.814241127732548087e+00 1.269116951262820692e+01
7.377931250808554609e+00 1.816935358654646393e+00 1.296133667898234876e+01
7.544775815331827395e+00 1.835338120187754107e+00 1.309261509068668872e+01
7.646166882611082016e+00 1.837952166439006829e+00 1.311126271807504295e+01
8.096676985683604499e+00 1.861169994625354818e+00 1.340946535289468322e+01
8.049125178034145733e+00 1.848689720578478468e+00 1.318786040970318219e+01
8.673973781072570333e+00 1.919087713919883642e+00 1.369005334071550983e+01
9.098465832369063477e+00 1.959692918448453947e+00 1.384285553113763889e+01
-9.717113055536509947e+00 2.198781927322233098e+00 1.568528715561318698e+01
-8.492124179904729786e+00 2.126041256424689330e+00 1.501790494258982989e+01
-7.681349910468179054e+00 2.153461886677443982e+00 1.521159846446168906e+01
-4.940679001522751967e+00 1.979232087429214859e+00 1.411910078628788767e+01
1.624926165932432554e+00 1.720241614851205192e+00 1.227155970798671625e+01
2.397900228766608688e+00 1.752098349324529236e+00 1.225646184190775578e+01
2.530225785626698531e+00 1.754260122606513095e+00 1.227158410473718320e+01
2.088496016540541955e+00 9.899084282175484306e-01 6.792994983230033590e+00
5.686185530687588141e+00 1.734001072212117966e+00 1.224861615179709062e+01
6.360681439932240444e+00 1.787871899433135514e+00 1.250670872560851699e+01
7.748983482496932140e+00 1.823362982044382186e+00 1.313707119934340817e+01
8.303198027757568767e+00 1.872597234540599676e+00 1.322763007495922594e+01
8.879650258877031632e+00 1.927141300525580858e+00 1.374750461270081381e+01
-8.648859848072270040e+00 2.135499724933761723e+00 1.508471755995672048e+01
1.156680362723639804e-01 1.816394138393166102e+00 1.283062331280409296e+01
8.885613217989631885e-01 1.768239279413690523e+00 1.236937256624407766e+01
5.256355933347986564e+00 1.734989288401822094e+00 1.225559670156528469e+01
7.723296697340769512e+00 1.847488087788245803e+00 1.292374212902225139e+01
-8.004043539143811614e+00 1.921462355414108814e+00 1.344121467203845732e+01
-4.564677239233999373e+00 1.967384189224661739e+00 1.324866875953864209e+01
-1.143798102394708360e+00 1.816275189820582003e+00 1.270539839674060367e+01
-3.476267683587976332e-01 1.815427911020168983e+00 1.269947142335425028e+01
1.053597993225810825e+00 1.790677483619782517e+00 1.228806909414343629e+01
0.000000000000000000e+00 0.000000000000000000e+00 0.000000000000000000e+00
-0.000000000000000000e+00 0.000000000000000000e+00 0.000000000000000000e+00
-1.382235767325376896e+00 1.818604406797472040e+00 1.297324304362517822e+01
-9.959624960141381933e-02 1.811958567688211952e+00 1.279929138120970933e+01
-9.295856578385214064e+00 2.280024610118686734e+00 1.535403760409566409e+01
-5.256719379578631557e-01 1.824736567229156448e+00 1.228805765800329475e+01
-1.990366926115884338e-01 1.825143238882630525e+00 1.229079624768002610e+01
2.959050975088698188e+00 1.769055963146286325e+00 1.169479935883913591e+01
6.456525551580029720e+00 1.809595329972377709e+00 1.230089925497908965e+01
-1.040214983787747194e+01 2.379075724038761219e+00 1.602106309193775502e+01
-7.448048931005474493e+00 2.170224977417653633e+00 1.434683028868200338e+01
-4.007801301337783784e+00 1.923990545294789190e+00 1.307851179388529061e+01
-2.850479950655630201e+00 1.882981701450892942e+00 1.268028938090982649e+01
-2.659878682760213220e+00 1.870758652168265534e+00 1.248148701885035372e+01
-2.607319173789370392e+00 1.869691131353050206e+00 1.270940627651421551e+01
-2.037740394885277695e+00 1.846026494048734312e+00 1.243142731091209896e+01
-1.903319683946615326e+00 1.845845996827070623e+00 1.243021181476501269e+01
-1.301909001801090815e+00 1.836118258862796671e+00 1.236470372601746170e+01
3.289027051117416889e-01 1.793712133777035866e+00 1.207913433509020251e+01
2.829441506775003834e+00 1.756241874515836132e+00 1.171744422153242127e+01
2.195454795920234847e+00 1.042574467630288826e+00 6.892206617307855332e+00
-9.016658066670956373e+00 2.306000476733571780e+00 1.497009591151498853e+01
-6.762485279545345840e+00 1.748626581484151954e+00 1.145479637719878774e+01
-7.572391609640326315e+00 2.169764171817466281e+00 1.434378401476535636e+01
-6.703569488679870680e+00 2.153621596822557827e+00 1.423706937168266151e+01
-4.250452430594187980e+00 1.944934416480446293e+00 1.309748852517260076e+01
-3.307138199748701712e+00 1.902404641363352633e+00 1.281108645585125494e+01
-2.180423285418847001e+00 1.875815967857045408e+00 1.228798085332964085e+01
-8.158294860940791260e-01 1.817202353100938028e+00 1.201308345052533966e+01
2.232803547107526043e+00 1.760022008157759332e+00 1.163507807629717128e+01
1.951682064242608705e+00 1.038279140053381511e+00 6.801495675486126657e+00
4.850465200200511084e+00 1.814665710473580384e+00 1.178044844622364451e+01
6.517934050029180248e+00 1.849795964895351252e+00 1.222855190277126525e+01
8.345042977804636664e+00 1.951231225058576157e+00 1.301839078927512361e+01
-1.007766677162481450e+01 2.375437968309775272e+00 1.584864949371135623e+01
-9.756834077456536747e+00 2.356120117558248683e+00 1.543432798782260384e+01
-9.620915339752603046e+00 2.342884797636093364e+00 1.548824242987660860e+01
-9.113515047566549399e+00 2.287269047061244454e+00 1.484849519998706491e+01
-8.157181964914888894e+00 2.200945134503719203e+00 1.454991378681769731e+01
-7.824820711701477194e+00 2.132912397437125129e+00 1.436336125985355849e+01
-7.699547808900056189e+00 2.151312994279580781e+00 1.435331338997838202e+01
-7.253442701939714077e+00 2.154373116262698229e+00 1.424203748419566473e+01
-7.010090944818592185e+00 2.172636467799781368e+00 1.436277206597015343e+01
-6.785192141579507563e+00 2.140398074848691934e+00 1.414965187923289136e+01
-5.877274253259626491e+00 2.058186151884499271e+00 1.348264033376239190e+01
-5.735996572604287635e+00 2.062814128197672403e+00 1.351295699877665690e+01
-4.750701890042846820e+00 1.989605458119289905e+00 1.291612245297931594e+01
-4.664133167168697192e+00 1.974103033784305961e+00 1.305031574734530331e+01
-4.329735972609099370e+00 1.929000725073592104e+00 1.287007144478697462e+01
-3.677209398918460881e+00 1.906174113956004001e+00 1.248684914552823599e+01
-3.465690852926672783e+00 1.926171776361748522e+00 1.261784861294073856e+01
-2.894203702810727030e+00 1.850931298816554271e+00 1.223605731960960163e+01
-9.586648603053554707e-01 1.803116603977424459e+00 1.191996598378027450e+01
-4.418436489347171009e-02 1.863138618489447174e+00 1.231675694543137922e+01
4.382150628657618952e-01 1.805810916379772424e+00 1.182939603108195925e+01
1.181595731786275971e+00 1.760908041574887228e+00 1.153524901702693306e+01
1.406793594928894997e+00 1.768892785879798035e+00 1.169372063355782210e+01
1.896012952499558368e+00 1.723889061263611522e+00 1.129274733825382349e+01
2.647434081254655958e+00 1.772973844912349328e+00 1.150979315691265015e+01
3.358427931257033983e+00 1.514084312592338444e+00 9.741487993454576610e+00
5.181995719018079427e+00 1.778165998386648461e+00 1.175502358944996750e+01
5.364975515660600713e+00 1.840014043571082336e+00 1.194500477719376796e+01
