10.1318 -0.08528 15.9659 184.052 170.781 182.877
10.3742 0.00325319 16.0774 197.071 191.857 207.526
11.3606 0.027573 17.3604 121.848 124.8 125.324
-19.9638 -0.458296 42.1031 250.134 249.299 247.209
-2.51484 -0.181472 26.9755 37.1207 40.5345 40.431
1.50354 -0.197022 20.741 40.9859 43.0704 46.8451
1.80518 -0.195772 20.6094 36.3382 41.7941 43.4118
2.04607 0.0040886 20.206 69.1281 80.7488 66.3645
6.26812 -0.151889 15.9898 67.5238 69 79.1429
6.65302 -0.129631 15.9777 60.7551 60.7449 71.4286
6.81973 -0.129661 15.9814 67.5366 65.9146 88.1829
7.68325 -0.109696 16.3061 74.1182 78.1818 90.5182
-21.8061 0.00735043 36.3261 142.662 131.508 139.8
-23.9808 -0.0535879 45.2759 82.3431 82.1176 88.451
-23.5974 -0.302132 44.9113 79.2727 73.7455 75.5636
-23.7209 0.00925659 45.7464 118.462 120.433 150.596
-19.7755 0.274191 47.7181 213.717 222.623 208.896
-11.5371 -0.171637 32.1336 213.606 214.835 201.717
-1.41256 0.0730609 24.5649 106.541 117.083 101.105
0.724441 -0.166795 20.5584 34.6173 37.5432 39.8025
4.88034 -0.0830771 15.5535 56.5926 57.2963 76.5062
5.13516 -0.106109 15.7728 53.1505 52.0753 65.3333
9.84203 -0.0206932 17.4835 216.593 227.637 190.239
-15.8665 -0.0292689 24.7291 81.5152 64.7121 81.6212
-22.3703 0.0570374 35.9116 141.139 133.277 149.883
-21.0252 -0.253698 37.7117 118.624 100.762 122.238
-19.5102 -0.109501 42.6154 241.422 237.844 231.416
-9.12531 0.0074512 36.8241 107.385 104.415 107.738
3.13748 -0.157142 19.3686 24.8 27.5867 29.84
10.5212 -0.0452026 17.5919 47.073 49.8876 58.4888
-14.4284 0.0976691 22.4005 54.5584 61.4805 58.6753
-20.5571 -0.051012 43.0997 255 255 255
-14.335 0.11183 37.6 154.545 149.778 145.361
-2.13067 0.0770316 25.8999 55.0341 66.6477 45.8977
-1.84692 0.251761 25.4205 72.1571 77.2357 66.2571
5.36288 -0.0403139 15.6893 65.6923 66.7981 77.7596
5.65986 -0.040778 15.87 67.3772 70.7018 80.4298
5.81991 -0.0188397 15.9175 67.0513 67 78.2692
10.2903 0.0973733 16.9461 175.2 143.264 150.686
9.96546 0.00327994 16.2096 188.228 177.444 175.815
9.99386 -0.0630654 15.944 139.61 118.857 186.229
-23.2632 0.248439 43.2363 223.107 226.214 232.209
-9.70213 0.406419 41.0365 129.847 135.097 110.792
-10.9024 -0.0567238 47.9255 87.4231 88.641 87.8077
3.22499 0.0568803 19.1245 39.2442 42.4884 51.5
3.62403 0.0297196 18.7119 106.748 126.145 97.7547
3.82869 0.0288749 18.18 42.8145 44.0968 55.5323
-18.088 0.0916019 30.7988 110 114.512 103.186
-19.7481 0.149067 34.1886 87.9718 99.0634 80.2042
-20.0185 -0.13967 35.3108 70.5484 85.4032 56.7903
-22.8568 0.852969 46.8165 179.519 182.764 172.755
-19.7396 0.125846 42.3125 254.174 252.645 255
-5.78505 -0.23535 44.0618 230.373 225.843 241.843
0.220385 0.0299238 18.8404 38.5208 43.7083 36.6875
0.501001 0.0854983 19.6091 35.6786 36.1429 38.5804
3.42177 0.00380731 18.8159 119.613 126.565 113.065
7.83276 0.0486619 16.3613 79.2523 77.3153 93.5315
8.13792 0.0490419 16.4891 76.5321 74.9725 89.7615
9.07699 0.026967 16.9788 64.8333 75.2436 78.4615
9.65072 0.0994814 17.313 77.7941 80.9265 87.7059
10.0241 0.0278982 17.5651 218.554 246.967 195.545
-20.639 0.0579809 36.5056 94.0792 77.9604 98.0297
-22.4537 0.1203 40.4477 170.476 145.048 161.841
-19.9798 0.40063 47.0338 202.849 218.417 183.096
-9.9359 0.0453887 28.5774 87.1457 125.695 53.6225
-9.14744 -0.0328872 27.7861 51.3478 71.837 35.8043
-7.52816 0.074145 24.9293 85.1147 105.586 57.6369
-7.50557 -0.187728 47.4607 157.22 101.902 252.195
-3.51585 0.134848 30.9275 46.1533 44.2263 54.4818
-0.48927 0.0989496 22.6942 40.5424 40.2034 49.5593
-0.0417945 0.0575199 19.3396 32.9655 34.3103 30.3218
3.05616 0.0575352 19.3447 31.914 33.5914 41.0215
3.44809 0.186423 18.8233 86.3108 90.8514 78.2703
4.11753 0.0703486 16.1345 51.1618 54.4632 59.2279
5.04891 0.0668966 15.3428 53.0792 57.0792 71.3069
6.15328 0.0252812 15.9174 62.8022 69.2528 73.7912
6.29247 0.0694188 15.9213 64.1584 67.8218 72.6337
7.28731 0.0479692 16.1284 55.8243 60.7297 68.3919
9.47975 0.0750105 17.2037 67.4956 75.1681 82.0708
10.4429 0.0527612 17.7396 58.7545 64.7545 78.2545
-20.197 0.385828 34.1749 131.746 160.917 109.343
-23.7242 0.38649 45.3738 48 60.4565 61.7826
-24.03 0.267177 46.4975 187.246 173.361 172
-2.56312 0.190494 26.7098 42.8113 47.2579 47.5094
-0.935124 0.0703217 23.6439 38.2477 41.5963 45.7064
1.40226 0.00415062 20.5125 71.2653 72.3878 70.2245
1.72401 -0.0240497 20.3194 66.2381 74.7619 64.4762
2.27915 0.168988 19.8391 86.6454 102.333 76.4468
2.88057 0.085276 19.5581 34.9211 35.7763 48.2368
4.00663 0.127126 17.8248 50.0508 54.1441 56.5339
4.02167 0.0493029 16.5768 46.9145 50.4615 53.7009
6.78323 0.0694769 15.9346 66.6947 69.8526 84.6632
7.47296 0.0707372 16.2236 85.0485 80.1456 108.204
7.99152 0.0944475 16.4369 75.8455 79.1273 93.4727
8.90826 0.0735811 16.8759 62.2593 66.5648 75.1852
9.27966 0.074527 17.0928 66.6281 72.3223 78.9422
-18.7579 0.169657 29.5258 76.4234 67.9635 86.8175
-17.2858 0.18809 43.1387 211.2 209.611 194.883
-8.93231 0.31337 24.7221 228.136 235.56 196.88
-6.10216 0.378942 38.2621 165.736 163.275 171.92
-5.06175 0.374117 37.7749 74.644 54.5759 152.681
-0.224804 0.123301 21.4584 66.7451 61.6667 74.902
0.863846 0.00414687 20.494 72.9747 76.9367 68.3924
2.59171 0.113564 19.7638 25.7465 32.6338 30.5704
3.76744 0.235448 18.5747 28.4762 37.2222 25.9206
5.98267 0.0473709 15.9273 61.1279 63.8372 69.6047
6.46054 0.0694009 15.9171 46.0417 50.3125 64.3125
6.94794 0.0918052 15.9771 64.219 64.5524 83.4857
7.12195 0.0921877 16.0436 62.9457 66.0217 84.1413
7.64593 0.1162 16.2927 80.1683 78.3366 97.3861
8.33769 0.0953265 16.5899 73.8692 78.1385 88.3154
8.55969 0.0728469 16.7075 75.0769 70.359 85.6923
8.72014 0.0964882 16.7921 69.8788 74.303 81.8586
-22.5216 0.517954 40.862 113.05 117.233 136.217
-23.9297 0.335352 47.0209 216.299 200.15 229.439
-20.9644 0.272521 47.4274 252.583 253.811 253.038
-4.60017 0.463166 36.5396 82.2667 67.1333 149.267
1.25756 0.0891919 20.4562 79.4286 95.8286 72.8857
3.88063 0.157849 13.9816 95.4279 119.516 81.2605
4.26017 0.10066 14.1138 56.9219 69.625 64.3906
4.69329 0.0853017 14.8452 50.76 54.15 65.83
5.46121 0.133842 15.713 61.61 68.12 72.52
9.99283 0.069438 15.9257 183.655 176.586 191.302
-10.2896 0.274424 27.7089 77.43 69.05 72.29
-7.35946 0.308799 27.3521 197 206.013 174.913
-9.81835 0.670273 39.8178 80.2632 90.8363 82.4094
-8.3641 0.314119 44.0437 239.116 254.419 172.453
1.53163 0.229815 20.3561 42.9369 44.6577 73.6487
2.14906 0.224479 19.8834 119.077 127.096 105.538
6.62536 0.135531 15.9112 58.4685 60.1892 71.2973
10.0372 0.1251 17.5406 183.074 206 172.632
-23.9142 0.275327 47.9158 224.041 149.74 186.548
-7.39864 0.130525 22.7156 93.7302 136.714 61.1429
-6.95172 0.381006 38.4705 189.887 239.339 134.452
0.856263 0.285621 20.3121 96.9735 117.456 85.469
1.81873 0.283107 20.1333 96.2886 113.736 91.748
10.2163 0.179425 15.8927 167.479 182.57 161.388
-22.6505 0.534341 37.9999 99.6706 109.953 88.3412
-21.0734 1.30362 37.4061 131.644 139.898 138.084
-21.5217 0.487896 38.4907 73.7292 97.8125 85.4792
-22.8008 0.690316 41.0085 145.43 160.25 133.99
-23.7817 0.756927 44.9655 133.085 146.655 113.077
-7.63151 0.251099 22.2413 105.537 145.06 65.5448
-9.71542 0.814784 44.7206 122.862 129.87 113.059
-2.11124 0.325281 25.6617 40.1163 55.4419 34.3953
4.11217 0.173438 15.3624 69.5263 83.0702 65.4035
10.5318 0.246717 17.5454 56.8226 62.6048 67.0081
-22.647 1.1493 37.4453 138.247 148.726 161.226
-22.4454 0.576852 37.3426 172.879 160.879 166.701
-19.7356 0.76042 33.9819 77.5286 78.367 71.5051
-6.67395 0.347388 20.6367 107.742 148.834 65.6556
1.30776 0.427298 20.356 88.444 106.05 80.2946
5.81696 0.200424 15.8116 57.4699 64.6386 70.6627
10.4578 0.247942 17.6325 54.75 64.77 65.97
-23.5973 1.1499 45.7234 169.396 157.981 179.474
-23.5834 0.735202 47.5934 124.231 104.017 104.359
-6.13322 0.380615 20.8906 113.098 160.591 67.1674
-6.48436 0.483667 23.0413 115.681 150.926 86.5319
-1.39814 0.442917 24.3102 69.4315 70.1411 68.083
4.68453 0.264019 14.4911 40.4685 46.2432 46.3243
5.15992 0.215152 15.3006 52.9767 54.9535 65.4884
5.67632 0.200464 15.8148 57.9481 58.987 68.9221
10.0944 0.22321 15.8737 191.112 180.963 184.467
10.7181 0.276944 16.4519 94.6396 119.234 117.333
-19.5058 0.717108 42.6001 235.609 241.602 219.087
-18.0497 0.807737 44.3338 118.121 124.218 111.323
-14.2956 0.80458 35.9553 73.0667 84.1278 64.3333
-8.82804 0.530284 23.6975 69.232 83.224 66.152
-10.4956 0.578278 45.6209 51.3676 59.1029 49
-0.729919 0.360768 23.3544 38.6887 41.0283 45.1321
-0.42304 0.472523 22.5105 45.7458 42.3898 58.661
0.243072 0.312709 18.5766 36.5532 44.1383 35.8192
6.29159 0.309523 15.7877 48.9636 56.1636 58.6455
8.52381 0.257421 16.6642 57.9863 67.2466 68.3836
9.93984 0.24782 16.0427 169.299 169.309 180.082
-15.3553 0.438543 24.0701 63.3966 56.6149 73.3563
-21.1765 0.86686 44.2155 231.079 246.226 214.582
-19.5361 1.49905 43.0136 102.591 114.616 97.7131
-19.6022 1.12256 44.6362 199.32 203.13 195.234
-6.71109 0.366173 20.0979 86.0882 134.225 51.2255
-3.52211 0.620575 29.5635 71.4375 76.1319 75.7778
0.0117963 0.29831 19.3112 35.9048 35.2738 31.8095
0.477681 0.314683 18.6939 35.3514 40.6757 35.7297
2.76799 0.355314 19.502 32.3282 35.0992 38.9237
5.98796 0.244081 15.8006 51.7701 58.046 67.4828
7.26604 0.248389 16.0795 56.4082 62.2245 61.102
9.05873 0.261314 16.9162 54.9059 65.1882 67.7529
10.3178 0.297232 17.6572 61.2752 68.1009 71.3119
-7.60075 0.484304 21.6428 88.1544 130.257 51.4632
-6.13827 0.48976 19.4743 103.958 143.825 65.1597
-2.62974 0.448481 26.6422 37.2881 39.5932 43.2881
3.01584 0.404041 19.248 32.1139 37.5127 35.6899
3.89511 0.305668 18.1583 36.4579 39.3271 45.0187
3.96008 0.307654 14.6563 72.4526 75.7263 88.9895
4.16398 0.262111 13.3693 63.58 76.43 65.17
6.12603 0.265974 15.8003 58.05 59.4625 64.8125
6.42312 0.287528 15.7814 50.3374 52.6265 60.8193
7.10183 0.312895 15.9597 62.4583 61.0417 76.8854
7.43319 0.272184 16.1692 67.04 69.72 82.68
9.98081 0.320362 16.3405 188.558 173.841 172.268
9.95739 0.267377 15.8837 185.099 176.031 189.957
11.2752 0.407465 17.1469 193.829 184.325 167.137
-20.4443 1.17609 32.456 120.517 117.051 141.06
-22.5094 0.933123 39.2677 89.2796 106.054 91.7204
-7.05643 0.982958 35.2051 44.1208 50.3557 44.7517
-0.254956 0.451087 21.4892 26.5714 31.9524 29.3333
2.4994 0.38553 19.6645 27.8614 27.9406 32.9109
3.23624 0.399619 19.0374 35.4074 34.6019 43.5185
4.02226 0.298901 16.4056 39.3611 40.0741 44.713
4.0567 0.286761 15.7393 38.3421 47.0658 42.8947
3.88118 0.275352 13.1175 97.3547 114.547 88.3081
6.74556 0.33256 15.8428 56.5926 60.3519 68.2315
8.85582 0.32885 16.7735 50.4737 56.0947 57.9789
10.0601 0.270472 17.509 60.2568 70.9054 68.0676
-23.549 0.691607 37.9599 208.767 194.744 222.605
-23.3802 1.22291 46.0867 198.587 185.051 194.353
-19.5429 1.1644 41.7036 211.569 220.832 199.504
-11.5424 0.750413 29.8386 89.7677 91.3434 80.3131
3.91437 0.490626 16.741 92.9358 116.257 72.5505
6.91566 0.333753 15.8996 65.9619 70.2952 75.8571
7.62232 0.295886 16.2401 57.3699 56.8082 67.0137
9.23529 0.309884 17.0084 52.7037 60 62.7654
9.41832 0.311818 17.1146 54.0851 59.3192 66.1277
9.60674 0.289662 17.2075 55.2692 58.6731 64.5962
9.73038 0.361754 17.2335 56.9434 62.8585 65.5
10.2314 0.446434 16.8243 156.258 142.5 127.823
-23.4841 1.15903 37.7624 208.744 183.322 216.678
-23.1089 0.94782 42.3565 147.108 136.387 159.324
-18.9482 1.12693 44.8101 184.879 203.331 159.903
3.99191 0.395063 17.6547 39.45 39.175 44.9625
5.44103 0.30487 15.5504 45.675 43.425 65.4625
7.81499 0.319981 16.3211 55.6867 56.8313 65.253
7.96415 0.34378 16.3773 55.9143 61.8 67.6143
8.07157 0.411937 16.3798 60.1039 67.1494 60.4416
8.25868 0.368949 16.4877 51.0606 64.9091 60.1414
8.69185 0.281717 16.7355 50.3455 53.6364 57.7273
-14.1883 0.82976 22.0549 161.402 139.024 146.425
-23.7453 1.08508 38.8628 75.3216 68.9064 68.0877
-6.7762 0.764733 36.431 174.755 178.3 187.83
3.46551 0.394221 18.7802 34.0174 35.3217 42.3652
6.53425 0.352846 15.7681 50.2255 55.8529 58.7843
8.43169 0.416633 16.5666 54.5133 58.3186 67.5841
10.2838 0.462241 17.4201 64.7414 64.5345 76.6897
-14.3644 1.14549 22.2505 116.245 128.921 130.675
-22.8924 1.5727 43.4011 74.6803 76.0544 70.8367
9.9612 0.405566 16.1265 187.238 177.6 173.648
10.1881 0.400042 15.9068 196.795 220.386 175.709
-22.7825 1.58054 43.6173 54.7553 60.0319 78.5745
-4.693 1.03945 32.4032 108.95 94.9412 154.263
2.19158 0.552057 19.7721 105.664 123.336 92.8
3.74491 0.464234 18.4593 29.7528 31.4607 31.4607
4.90926 0.388852 14.6543 38.3039 38.7647 48.098
9.89123 0.46037 17.3496 62.0196 62.451 67.2843
10.0505 0.461615 17.3965 65.1709 68.8718 74.4701
10.3722 0.425971 16.0532 211.948 227.175 198.979
-22.4276 1.56233 41.5267 183.734 173.911 183.75
-7.24333 0.662343 19.7923 233.179 253.205 195.179
-6.44702 0.790549 23.6234 240.364 241.347 230.178
-0.955427 0.619146 23.3332 36.78 40.31 42.76
5.6417 0.390319 15.5202 53.6889 83.2889 42.0556
7.25416 0.424028 15.98 60.0235 64.5059 76.8824
9.5044 0.476566 17.0684 57.0811 66.8108 64.009
10.0494 0.422206 15.9113 188.938 175.66 175.464
10.9739 0.491703 16.7777 74.7976 80.5595 75.0714
-9.15296 1.16915 41.8738 48.8478 52.7609 42.6087
-2.17236 0.736731 25.1385 42.5789 51.1579 41.6421
-0.621032 0.639646 22.9092 35.8219 41.6849 39.5479
0.139295 0.5156 18.4664 32.6304 36.7283 29.5761
0.716601 0.573241 19.56 111.821 129.389 96.7895
5.8503 0.453595 15.4775 48.9462 77.5923 36.1231
7.46607 0.471855 16.1005 55.4342 64.6184 71.9868
7.63527 0.473747 16.1651 53.75 59.0263 71.0132
8.64673 0.441678 16.6451 54.0471 58.3529 67.4353
10.3572 0.505507 17.2488 69.4063 75.2688 77.8938
-20.0453 1.13731 33.9853 217.099 215.879 218.637
-17.7039 1.44463 41.452 168.972 195.299 148.785
-6.90778 0.696738 19.2275 246.593 246.839 240.805
-8.44388 1.42239 34.0446 85.8939 92.2349 89.3561
-4.44729 1.13292 33.8543 50.5082 57.5902 54
-2.73009 0.757969 25.8632 39.3694 43.8378 44
-0.0954593 0.566893 19.3434 30.0139 28.5 26.2778
0.422076 0.568426 18.5198 32.3737 39.1212 33.4646
1.17019 0.626086 20.3985 76.9459 109.216 59
3.57801 0.544875 18.5921 26.8841 36.3333 27.1449
3.78396 0.446142 14.5357 42.6723 48.395 46
8.9905 0.492643 16.8098 53.4835 60.3736 65.4615
-17.596 1.3092 42.6551 83.5556 90.5062 81.4938
1.85641 0.611973 19.9387 93.1837 108.888 81.7551
5.34199 0.426193 15.2643 35.4333 39.7667 47.3
6.03978 0.412118 15.5311 67.0455 109.886 49.7045
6.98407 0.526215 15.7245 63.4688 77.5521 67.3854
9.13942 0.540575 16.8515 54.631 64.3452 62.8452
-22.2245 1.13715 37.0495 225.434 197.66 237.774
-23.0645 1.41522 46.1091 72.0337 74.9101 77.1011
-7.41632 0.80853 20.016 184.761 219.08 157.761
-7.65295 1.15869 33.2472 76.734 84.0426 88.2128
-8.07724 1.25868 37.6121 101.914 110.7 86.7286
2.64766 0.648615 19.3821 35.4848 43.1342 36.1515
3.88114 0.555149 18.0873 33.6912 40.5588 37.8529
3.84978 0.508775 15.8602 36.7788 43.2692 42.6635
3.75552 0.41687 11.9617 168.094 210.39 137.12
4.46917 0.421137 13.721 44.411 58.2055 50.4521
5.62357 0.555275 15.3236 39.6385 65.9308 28.4615
9.3123 0.567732 16.9651 56.7308 64.6346 60.4038
10.6469 0.592448 16.3495 77.8545 106.964 96.3636
-16.2961 1.2455 25.5697 130.823 132.413 132.698
-6.48152 0.549722 18.7574 113.323 137.339 80.6129
-5.62864 1.23919 30.6774 81.2299 86.8391 78.6973
-1.29498 0.791169 23.6419 35.7009 40.9159 38.5514
0.936805 0.676771 20.2235 62.8955 88.1791 51.5821
3.2363 0.631943 18.8839 27.0086 34.0517 25.0431
3.327 0.419382 12.0337 115.097 147.861 99.2361
3.38974 0.352987 11.5006 150.318 181.682 131.333
6.01579 0.537483 15.4225 43.6571 63.9 34.2143
7.82931 0.543793 16.2498 39.8785 46.5421 42.4953
8.72981 0.575085 16.5014 53.9597 62.3468 55.5565
-3.42993 1.05851 28.1352 63.9203 72.2754 59.1884
-1.65856 0.809523 24.1904 34.2453 36.6226 34.9434
3.99211 0.639516 17.6484 35.4545 40.2273 38.5909
6.37627 0.540147 15.4989 86.733 129.654 61.6911
10.1913 0.583407 17.4335 64.6508 74.7302 66.7937
-22.6774 1.90204 44.0632 121.415 123.324 129.007
-4.44485 1.54837 27.8287 84.5319 95.807 77.1337
2.97713 0.793347 18.9886 33.3241 39.7448 31.6483
3.41352 0.705693 18.7572 23.3286 35.6143 23.8286
6.73685 0.480884 15.6677 86.2203 136.542 64.1864
10.0249 0.491686 16.0196 128.846 113.769 180.385
-0.283935 0.835444 21.417 22.9912 27.469 28.2655
1.53673 0.781868 20.0436 44.4286 53.5317 57.4286
2.09093 0.790829 19.5777 93.1418 104.418 81.6194
8.16015 0.634023 16.2535 59.8088 71.2574 63.6765
-21.8379 1.88899 45.2126 75.3673 86.3142 68.9602
-5.586 0.67524 18.6342 253.847 254.99 245.122
-5.93366 0.865308 20.711 254.965 255 253.423
-2.29795 0.892628 24.6334 35.1194 36.6119 38.6269
-0.639269 0.874859 22.4275 32.3241 36.963 34.9907
1.24374 0.872504 20.2127 59.6822 77.8915 51.3178
3.75025 0.622627 14.9024 33.4068 36.2797 38.0763
4.41969 0.534524 13.2327 40.9537 52.3889 44.7037
5.09929 0.57379 14.7094 31.7961 40.1845 34.4951
8.3721 0.684505 16.3835 52.6364 61.8727 58.4545
8.50933 0.662481 16.4004 49.8532 58.1468 52.7706
9.48653 0.746941 16.7656 56.26 62.6267 55.5
9.99763 0.750326 16.8415 61.6454 68.8488 66.7442
10.189 0.652559 16.7287 129.874 118.23 125.103
9.98424 0.655474 16.2269 127.901 114.267 126.702
-6.00648 0.701889 17.376 254.314 255 252.702
-5.62989 0.657291 16.85 254.735 255 254.275
-5.44935 0.659284 16.9011 255 255 254.837
-5.40552 0.775221 17.4003 253.786 254.752 251.556
-0.969302 0.924549 22.8881 33.2048 35.8916 36.3133
3.52532 0.795752 18.4346 26.7021 34.617 25.1489
3.67651 0.736391 18.2301 33.9783 37.3587 37.7826
2.88767 0.48058 9.59322 116.492 142.383 103.8
5.42563 0.614026 15.2008 30.5738 42.3607 28.7541
6.049 0.660059 15.2911 39.8667 62.6333 37.76
6.75746 0.647164 15.4897 54.3495 84.1165 43
7.18069 0.663414 15.8787 56.4615 65.3365 61.4615
7.3774 0.645084 15.9697 59.9 65.5909 65.0636
7.52153 0.71049 15.9474 57.4472 70.813 55.4553
7.90743 0.742135 16.1551 41.825 49.0167 41.5667
9.81289 0.710204 16.9986 67.7573 71.5243 71.2039
10.0361 0.620874 15.9164 137.618 141.074 124.522
10.1778 0.644755 15.9615 135.647 117.634 136.686
10.3594 0.671461 16.0713 130.216 118.619 126.963
-23.7022 1.88807 38.7615 67.4033 75.0663 68.3591
-8.15865 0.866216 21.444 176.467 185.902 156.674
-8.26081 1.33736 32.0094 243.449 236.577 248.115
-5.94528 1.30374 29.2632 54.2092 60.5686 45.7516
-1.94538 0.987395 24.4439 23.7531 26.8642 26.642
-0.0415424 0.775869 19.2074 39.2609 35.3478 33.2609
0.16384 0.791594 18.3383 33.3717 38.9204 31.0708
2.54372 0.809754 19.3813 47.2824 50.8118 43.2118
9.36592 0.701393 16.7877 58.8168 71.3206 61.0153
9.93206 0.643609 15.9332 116.25 132.888 105.8
-21.6593 1.40975 36.1396 196 173.941 203.686
-21.2827 2.07472 42.5934 98.9353 103.607 92.6617
-14.5166 1.53795 35.6285 146.84 154.333 134.462
-10.4364 1.1846 26.589 159.583 175.528 145.417
-6.62774 1.19302 24.4923 231.179 239.843 209.888
-2.75375 1.0972 25.418 43.7556 51.1778 48.2667
0.418361 0.766645 18.3495 35.5584 37.0519 34.7013
0.675964 0.827298 19.1654 65.3333 77.75 57.1667
1.79329 0.883647 19.834 66.9565 74.8333 64.6522
3.85484 0.750269 17.9575 33.7907 36.9419 39.3837
6.58449 0.624305 15.4553 45.5484 73.371 35.5806
9.73564 0.734727 17.0209 61.4026 72.6494 62.7273
10.0215 0.763428 17.1356 71.625 76.625 79.3269
10.1451 0.728945 16.887 64.5794 68.873 71.7143
-24.202 1.6919 39.195 213.777 202.813 202.964
0.928158 0.864591 20.0294 71.96 81.68 62.62
5.77888 0.659616 15.2809 26.4271 41.4479 23.7813
7.70617 0.759433 16.0475 38.5652 46.3652 34.0783
8.92597 0.734001 16.4751 55.563 61.9496 58.6303
-18.4033 1.47393 31.1455 67.1667 57.9804 186.049
-17.3146 1.73693 40.2382 115.205 121.284 115.92
-6.42133 1.62127 27.1128 197.801 200.278 193.938
-6.45917 1.64225 29.5158 219.844 228.282 210.954
3.27817 0.578951 12.2338 70.598 91.0882 64.049
8.00433 0.762449 16.1113 49.7377 66 54.3443
8.49214 0.698309 16.1772 35.3704 46.7222 34.0556
10.8308 0.758129 16.5033 23.7581 30.2097 24.7258
-6.42618 0.933262 17.6528 251.085 254.634 234.07
-2.26232 1.14714 24.2402 43.1279 49.9884 44.4186
2.17661 0.970964 19.3822 62.2529 74.1724 54.8966
3.7969 0.777685 15.9656 43.9159 50.7009 44.9907
6.40357 0.788728 15.3205 54.3641 80.5435 40.2337
-20.4334 1.75633 34.1156 114.986 106.094 122.333
-1.61892 1.14943 23.5976 25.5349 32.8488 23.5349
-1.24555 1.13836 22.7238 43.4803 50.4013 40.9474
3.28358 0.911549 18.7139 25.8649 29.5676 24.6306
2.7535 0.45689 9.65453 88.5065 110.208 82.7403
3.53916 0.573918 10.8557 131.205 155.385 117.869
6.21675 0.829762 15.2942 39.9815 61.0185 30.3889
6.91281 0.780908 15.5883 70.1798 98.236 62.9438
8.55492 0.868266 16.0039 40.6752 48.5032 33.1147
9.21818 0.76882 16.736 58.8163 57.0816 55.8571
-22.6838 1.97484 36.4002 158.405 130.541 147.507
-22.6749 2.22972 47.1161 161 189.4 155.633
-17.3049 2.03929 38.5735 179.444 169.094 183.706
-7.86887 1.06116 20.6124 179.102 198.433 161.843
-5.96289 0.864782 16.7978 254.99 255 252.891
2.46921 0.988488 19.2007 20.8125 26.0357 19.7054
6.58973 0.790189 15.3489 63.8478 91.1087 46.413
-17.3062 1.52656 29.6526 86.0769 85.8205 88.5299
-19.2851 1.67706 33.477 61.102 62.449 67.7551
-19.0884 1.89892 33.2995 152.8 153.54 160.287
-19.3517 2.09708 41.8615 202.208 199.594 195.146
-5.1719 0.907797 17.1711 237.898 243.533 227.007
-2.46237 1.28175 24.2446 40.2353 42.3235 40.3676
-0.0413928 1.0112 19.1271 47.3222 56.1 37.9
2.82033 1.05421 18.9472 28.2121 35.1919 24.2929
5.34726 0.763625 14.8329 35.1512 56.7442 26.3023
-14.1512 1.87812 33.7551 231.657 232.791 228.173
-10.9329 1.4742 27.1724 186.379 186.728 179.854
-2.82064 1.33071 23.9166 43.0488 48.0569 42.3821
-1.92935 1.22625 23.8191 24.8941 27.1412 24.4
-0.874043 1.22771 22.0655 28.09 32.94 29.5
0.580538 0.985933 18.6491 30.7326 38.4767 30.3488
3.68057 0.945968 17.8931 31.3776 33.6837 35.0612
3.81648 0.917376 17.3523 34.3168 37.1782 38.0594
3.29174 0.716816 12.5701 68.0172 75.1035 59.1207
2.7888 0.551704 10.169 63.1604 79.1509 58.566
4.15043 0.666795 12.2903 40.4286 48.625 48
4.92758 0.768084 14.1573 30.5596 34.7615 32.9083
5.58001 0.796005 15.0566 26.9022 47.0978 21.6196
5.82222 0.799636 15.1252 42.9077 50.9692 49.0462
-18.2548 2.122 38.1384 162.658 157.275 161.959
-5.45142 0.862032 16.3055 254.2 254.922 248.956
-5.29105 0.896226 16.5192 247.435 252.645 231.653
-5.4241 1.13402 19.4144 192.407 198.608 185.407
-3.61434 1.41851 26.146 200.829 216.317 185.683
-0.59272 1.15478 21.8428 27.6705 31.3068 29.4091
-0.308433 1.17096 21.0455 20.2247 24.0449 22.7978
0.263336 1.01111 18.1725 51.881 61.3175 46.381
9.92134 0.889225 16.3902 27.3295 30.5455 22.8068
9.86049 0.775211 15.9149 57.7959 58.3673 60.7755
10.5939 0.835396 16.227 33.2321 28.4643 24.2857
-5.67212 0.869874 16.4538 253.745 254.706 250.51
-6.66575 1.57872 25.8031 231.186 224.323 231.658
0.88906 1.07233 19.7652 28.9242 31.4545 27.6667
1.46893 1.07737 19.8581 32.0641 40.141 33.359
3.72534 0.82724 14.8679 19.6207 20.7845 20.6724
3.22639 0.581028 10.1889 121.029 144.01 111.51
7.10418 0.830088 15.7012 39.4648 48.831 39.1268
7.30889 0.879651 15.8098 61.5385 71.4692 57.6692
9.78853 0.868343 16.0053 34.7091 27.6545 23.8909
9.88762 0.839887 15.8866 28.0517 22.9655 23.6207
10.0375 0.842792 15.9415 27.9104 27.0896 24.1194
10.2328 0.850461 16.0866 28.0843 28.747 23.9518
10.5808 0.867352 16.4061 26.5849 32.7453 19.9717
-21.1472 2.24079 38.3622 225.461 231.79 221.886
-21.4068 2.28646 40.0955 220.372 228.269 211.462
-21.3802 2.30217 41.3766 232.406 228.494 232.531
-6.98677 1.09391 18.7277 187.62 221.747 162.684
1.17753 1.05873 20.026 38.5088 41.0526 36.9474
1.80149 1.09144 19.6164 46.8878 52.898 44.8673
5.98942 0.928002 15.1676 52.6747 75.9759 41.1988
7.88817 0.955809 15.9841 34.6737 40.4947 35.2842
8.08293 0.937845 16.0559 37.592 49.888 33.92
8.25141 0.899376 16.1643 28.7538 25.6923 29.1385
8.35188 0.874206 16.1133 22.8923 31.6154 22.5385
8.42756 0.954523 15.9626 37.2806 44.6978 28.3453
8.76237 0.960516 16.0629 47.8207 62.4022 37.0435
9.52366 0.916099 16.4649 40.1818 35.1364 31.7045
9.75759 0.946333 15.8257 25.8085 25.3191 19.6277
-22.3593 2.23818 36.5815 123.227 118.841 142.352
3.1016 1.1577 18.5027 27.4762 34.5034 24.6395
3.33881 1.08802 18.1952 28.4538 38.9496 24.3025
3.52163 1.07809 18.029 21.5435 24.0543 21.5435
9.07187 0.974232 16.2922 47.1667 56.1508 35.2143
9.5675 0.905795 16.6956 29.1111 31.6444 29.2222
9.8215 0.912999 16.8284 41.8913 46.5 40.6304
-8.5317 1.30233 21.7791 212.165 209.329 204.304
-5.07838 1.61434 25.801 56.9403 71.7537 58.6194
-4.88113 1.56379 26.7721 168.958 172.892 160.233
3.65692 0.977087 15.6161 79.4494 94.7978 65.191
2.46403 0.491754 8.41881 80.8644 97.4407 72.7288
9.12283 0.989678 16.1756 37.2842 34.0737 27.0105
9.71754 0.942168 16.5219 38.4697 32.1515 34.197
-21.356 2.21122 35.3405 236.632 242.908 235.263
-20.0358 2.12711 35.572 249.596 246.028 249.725
2.12766 1.17271 19.1671 41.2451 47.7451 36.4412
3.80224 1.05635 16.8829 29.6833 36.1333 31.4167
2.4651 0.561786 8.59776 58.069 74.2989 53.4828
5.68774 0.978694 14.9782 82.548 103.102 62.3729
6.7889 0.96373 15.4026 242.589 253.596 204.55
7.6669 0.994257 15.8905 41.4353 44.5412 48.8588
9.6381 1.02856 16.0825 29.1261 26.009 21.0901
9.87327 0.990954 15.8377 20.6667 23.3444 16.6222
-16.2044 1.95044 26.988 202.014 191.072 183.331
-15.1148 1.65091 25.8136 225.86 231.554 203.661
-14.0694 1.99861 32.6659 253.992 253.88 254.218
-5.83041 1.12121 16.461 143.106 157.245 143.189
-3.11976 1.56595 23.468 49.2541 62.623 44.082
-2.43305 1.5035 23.0101 41.7742 51.2581 38.5591
-2.07002 1.46007 22.8296 35.2925 39.0849 35.2264
0.206898 1.20196 17.6466 51.6136 57.7652 47.7121
2.34107 1.21461 18.9917 21.186 25.7558 20.5116
2.56124 1.22318 18.72 22.4919 28.75 19.5887
10.4616 1.00201 16.0144 20.6701 25.3402 17.4639
-14.4484 1.53629 22.5551 226.596 231.968 213.277
-15.337 2.18986 34.2405 254.471 254.067 253.817
-1.7351 1.47357 22.552 32.6897 40.1983 33.8966
-1.27027 1.46602 21.5234 34.0543 38.8533 34.087
-1.04549 1.38488 21.1946 47.7292 64.4583 40.0833
0.897665 1.21081 19.3515 21.7529 27.8824 21.8471
1.34034 1.2514 19.5669 22.963 31.2099 24.4198
2.65276 0.644962 9.66569 44.7064 52.7339 45.156
5.07815 0.94801 14.2073 58.4672 89.5 43.2131
6.52389 0.978147 15.2943 242.593 254.271 184.914
7.32936 1.08729 15.6447 50.0546 63.3607 49.6175
8.23125 1.03523 15.8436 25.4706 25.6471 25.5098
9.2299 1.03227 16.1405 29.1507 25.3562 23.4521
9.57274 1.03277 16.1484 22.5976 23.2317 17.9634
9.67175 1.01197 15.8231 21.4583 19.6111 17.9722
10.0807 1.02433 16.0164 23.1648 23.4506 18.3297
10.132 1.06627 15.9796 26.3614 19.7349 17.1084
10.3295 1.03169 16.1315 26.5229 27.2018 19.1651
10.422 1.0521 16.1017 24.2636 22.6 15.5909
10.556 1.07007 16.0366 29.3364 26.8318 21.3551
-18.5051 2.33664 37.3449 144.742 157.155 138.773
-15.9214 2.21491 34.6322 252.917 252.944 252.843
1.131 1.25892 19.6845 25.4333 22.8167 20.4
3.67851 1.16031 17.7577 27.2459 34.8361 28.8852
3.75849 1.13576 17.382 30.4521 32.863 30.863
3.63943 0.978402 14.6628 21.2407 26.0741 20.3148
3.82675 0.892941 11.2745 189.081 144.99 208.005
5.42281 0.984453 14.7535 38.7053 61.9158 28.5684
-18.6122 2.3222 36.3098 120.046 138.885 111.6
-5.13034 1.06965 16.3703 132.455 161.839 111.062
-0.593122 1.38646 20.7781 30.7284 34.0123 30.4568
0.538243 1.2065 18.0811 31.2577 36.6598 29.7732
1.85294 1.28779 19.2993 24.0741 30.4074 26.3148
3.08291 0.633455 9.69461 114.403 141.597 109.306
7.05008 1.03886 15.5688 51.8889 72.0855 55.1453
9.26723 1.06975 16.0317 29.0119 24.8929 20.2857
-18.7261 2.35389 35.2765 126.009 126.607 113.06
-4.85376 1.13302 16.6345 252.573 254.552 210.688
-4.78153 1.21218 17.1008 229.761 232.598 189.783
-0.354327 1.32747 20.316 28.3684 30.7895 36.7544
-0.0404082 1.27064 18.655 44.885 51.115 55.2655
1.57518 1.29906 19.4683 26.5926 25.9383 26.0988
4.63236 0.933322 13.4293 47.8482 58.0804 50.8393
8.11073 1.14708 15.8719 28.1703 38.6648 23.3187
9.38779 1.07115 16.0527 27 29.0299 19.4328
9.66433 1.08654 15.9521 27.5814 20.407 16.9419
-15.8734 1.99709 25.2157 202.821 173.968 187.559
-18.3191 2.09738 29.5886 217.727 200.259 204.254
-18.7569 2.31619 34.0052 111.629 125.741 106.466
-19.9296 2.4189 37.0197 110.348 117.561 113
-15.696 2.2906 32.9589 253.211 254.063 252.063
-14.7307 2.27608 31.4938 254.667 254.991 254.843
-12.8912 2.11662 29.2873 255 255 255
-8.62443 1.71305 21.6293 234.118 235.445 234.365
-3.8616 1.56842 22.1263 48.7536 63.8406 43.5072
-2.65647 1.50494 20.8237 66.8 86.1882 50.8941
-0.828592 1.45252 20.9 31.2676 41.0282 29.5493
2.76188 1.30223 18.3711 21.0163 25.626 21.6911
3.39295 0.904072 13.0085 52.9778 71.4444 49.8667
-16.1006 2.31908 32.7162 254.384 254.895 254.93
-15.7429 2.34696 32.4746 254.414 255 252.964
-7.4508 1.35475 19.112 249.793 249.515 243.598
-6.52903 1.21182 17.4365 198.333 196.141 193.061
-5.50611 1.08331 15.9046 254.86 255 222.5
-4.58843 1.69327 22.9887 31.6585 40.3252 29.6992
-2.39844 1.54197 20.5479 54.9778 66.8519 47.7259
3.77704 1.25034 16.6617 32.9333 31.85 25.4833
6.22379 1.12057 15.2134 220.229 249.873 167.119
8.8541 1.20875 15.8155 64.7664 97.781 48.146
3.0965 1.32218 17.6191 30.5714 34.7075 30.2381
6.38856 1.18147 15.1832 169.512 200.631 132.065
7.8765 1.16166 15.7713 43.1966 48.3077 38.5641
8.34755 1.17398 15.6443 39.5789 61.655 32.3509
8.50973 1.15493 15.6799 44.3662 43.2958 33.9014
8.67518 1.13651 15.7258 37.0811 35.3108 28.6081
8.98076 1.16386 15.8011 24.1458 24.0625 16.8229
-17.2986 2.14874 30.3131 134.708 148.28 129.348
-16.0136 2.35273 31.9418 253.653 254.316 253.6
-11.9376 2.10016 28.5129 249.778 242.986 247.667
-9.51484 1.93668 23.2333 75.594 79.1429 72.6767
-5.18767 1.25688 15.5967 222.659 232.092 181.065
-4.94598 1.10571 15.5987 202.321 239.547 159.434
2.18869 1.36722 18.5621 28.5085 28.1695 23.8644
3.44368 1.0955 14.0783 46.7764 59.6584 43.3913
2.51072 0.714508 9.18221 30.9519 40.75 30.4327
2.4858 0.623745 8.31189 85.5741 106.241 77.9815
7.54177 1.15722 15.711 54.6567 68.209 45.9702
7.67002 1.17608 15.6722 32.3059 38 23.9412
9.70878 1.19949 15.6942 18.5185 21.6852 15.1944
-14.2794 1.85519 24.2736 107.276 130.186 82.6474
-4.84696 1.47863 18.0382 31.6443 39.2819 38.5369
0.809718 1.39188 18.5478 31.7159 38.8636 32.1818
3.33012 1.31335 17.5014 23.3563 21 22.6092
3.5332 1.27972 17.3742 23.6962 24.6203 21.7468
2.74667 0.662085 8.6628 105.906 128.101 100.792
6.74928 1.17188 15.3331 148.462 189.846 128.795
7.06902 1.18455 15.4988 45.2987 43.7792 38.7532
8.04719 1.26603 15.4446 52.434 70.0063 39.6038
9.81421 1.20078 15.7111 21.383 18.8404 15.8511
-15.9894 2.31918 30.9048 251.463 252.737 251.379
-16.0758 2.45494 31.5487 254.826 255 254.972
-12.3019 2.22528 28.5973 255 255 255
-4.12888 1.74723 22.4538 63.275 79.6583 54.5333
-3.37939 1.7607 21.4792 46.2864 55.1505 43.3884
-1.8585 1.64979 20.4724 53.0484 64.1694 46.7419
-0.276633 1.46664 18.8479 34.4811 42.4434 33.5
1.0644 1.42336 18.9674 30.7326 33.2209 31.6163
2.00748 1.42309 18.2883 32.9053 37.5579 33.2105
3.07977 0.950754 11.798 48.6667 55.8468 48.4144
2.93205 0.779573 8.90779 99.9435 120.309 95.2087
5.65205 1.1609 14.6578 211.707 232.857 158.549
5.98085 1.19156 15.0448 201.928 219.536 152.425
6.70055 1.12663 15.2957 201.75 237.482 168.768
-15.8355 2.34201 30.0974 254.5 254.151 255
-13.22 2.3247 29.3521 255 255 255
-6.37874 1.3869 16.9191 43.3241 48.5172 40.3034
-4.63051 1.29939 16.1243 225.76 228.368 186.032
-5.58824 1.77275 23.195 103.991 128.748 90.018
-0.88274 1.55224 18.9362 53.2015 66.9105 45.3731
1.30491 1.45166 18.6554 32.9655 40.5517 32.1954
1.55083 1.44132 18.5225 32.4659 38.9886 31.8068
9.22402 1.22636 15.7601 22.7143 23.4388 18.1735
9.36829 1.20678 15.7897 21.2784 21.7629 15.9794
9.51876 1.22316 15.719 22.6447 22.6316 16.75
9.60797 1.22057 15.6857 23.6932 20.9091 13.9432
10.2404 1.25059 15.7902 20.049 20.2843 14.5196
10.349 1.31251 15.7454 41.9272 44.3544 35.568
-13.9556 1.81216 21.7394 160.915 131.789 139.615
-14.938 2.30583 26.7715 218.961 217.706 214.917
-15.735 2.21167 28.9378 253.484 253.78 249.044
-15.9886 2.36825 29.902 255 255 253.946
-13.7167 2.36552 29.8676 255 255 255
-5.44753 1.2627 15.6689 248.515 253.801 204.926
-5.87211 1.77537 22.8155 102.013 134.671 83.8816
-5.47082 1.91938 25.1134 86.3113 102.613 78.4434
-2.13404 1.61775 20.4261 49.802 60.8119 47.8812
-1.64013 1.62842 20.5608 43.7349 54.8193 42.1205
-0.535957 1.51151 18.7565 38.2159 49.2614 39.875
0.542251 1.40116 17.3871 42.6481 47.9815 37.3426
1.76222 1.45237 18.3379 34.5882 42.7412 31.6471
2.40018 1.40552 18.0625 33.06 33.46 33.96
3.71155 1.35004 17.046 29.561 34.1341 26.6463
2.35633 0.644441 8.28178 71.8852 94.8689 63.1475
9.09003 1.24758 15.7523 26.3085 24.8511 15.8191
9.93041 1.26994 15.7588 20.5581 23.4419 15.3953
10.0512 1.22881 15.7915 18.0323 16.7742 13.6022
10.1652 1.25347 15.8266 21.7895 22.3474 14.4105
-13.9338 2.07826 24.524 228.651 223.615 228.375
-4.80571 1.27325 15.7999 232.165 233.236 190.15
-1.28994 1.57539 19.5492 47.1404 54.5088 46.4737
0.246213 1.41361 16.9583 51.1888 63.1327 46.398
4.52885 1.0861 12.8162 99.2047 112.89 89.4567
5.26891 1.13429 14.3218 210.904 226.136 153.576
7.26317 1.32279 15.358 43.8664 50.4818 36.3846
9.44098 1.26952 15.7536 17.4471 22.6235 14.1412
-11.3826 1.61418 19.6918 206.77 204.868 194.73
-13.8348 2.19498 25.081 240.566 244.191 238.901
-5.82796 1.37998 16.0221 32.2317 43.1829 43.0183
-4.92518 1.25084 15.5218 252.398 253.437 205.456
-0.0389058 1.47081 17.9428 48.7403 59.3766 43.3896
2.13421 1.48128 17.4794 35.65 45.24 34.34
2.82952 1.40223 17.7048 32.1509 40.9811 36.3208
7.68423 1.35492 15.482 43.7206 59.0735 39.1765
8.51715 1.23307 15.5691 55 80.9667 39.4
-14.7755 2.06209 23.9416 197.436 152.842 166.182
-14.7978 1.99986 24.3969 218.143 198.724 204.01
-10.2381 1.55944 17.5411 109.459 90.3153 119.252
-2.80338 1.75352 20.0366 52.2185 58.7311 50.958
2.54955 1.45122 17.4095 38.0988 41.5309 34.7531
3.56705 1.36497 15.1179 95.7927 117.463 72.7439
8.58933 1.29679 15.5568 30.45 41.0667 22.6667
8.72178 1.39709 15.4738 28.4706 48.2185 26.9748
-13.9529 2.02362 23.495 108.224 139.259 86.0086
-13.7414 2.39761 27.8371 255 255 255
-13.1285 2.33346 27.5354 255 255 255
-4.18209 1.7964 20.5266 50.2109 60.7823 45.6122
6.71254 1.23133 15.2797 74.8727 83.2909 70.3818
-3.41748 1.7925 19.8532 40.0094 45.6981 38.3585
3.19574 1.47111 16.5476 37.44 48.9733 36.1333
3.3554 1.4424 16.4816 39.0089 47.8142 34.8142
2.38709 0.816875 8.52408 55.7813 65.6813 50.6375
7.00324 1.36073 15.306 32.1927 29.945 25.9908
7.50413 1.39323 15.431 59 55.8939 57.7095
-12.6196 2.36321 27.0033 255 255 255
-7.1912 1.73878 18.4104 108.198 124.148 92.7582
-2.35526 1.66701 19.048 58.4048 70.4048 57.8095
2.33321 1.52842 17.1923 37.2581 48.1398 36.7527
3.05082 1.45207 16.592 40.1163 44.9186 37.3954
2.25293 0.688519 7.74472 70.8557 85.0928 61.9278
6.80481 1.33347 15.2369 24.4771 25.1193 22.1468
7.8114 1.35507 15.4838 20.5426 20.1008 17.2403
8.90543 1.38371 15.5645 20.6237 21.2151 18.1613
-13.6188 2.44936 27.1284 255 255 255
-13.3203 2.47725 27.4373 255 255 255
-4.95941 1.77221 19.9345 48.7725 50.4072 50.6707
-3.66938 1.78872 19.5118 36.2959 39.9184 34.4898
0.800732 1.48418 17.2319 53.1042 69.8958 50.6458
1.13905 1.5374 17.2932 54.2385 67.945 48.6514
2.61532 1.49114 16.7729 37.9512 47.1341 33.4024
2.81912 1.5033 16.6501 39.271 51.6355 36.486
3.58692 1.44856 15.8013 43.978 54.6044 37.3736
8.13857 1.39634 15.2316 57.4839 80.371 39.9301
8.46039 1.41854 15.2434 51.3667 61.2533 37.8267
9.21568 1.40424 15.553 22.8077 20.141 16.4615
-13.271 2.24139 24.4496 234.953 235.331 234.118
-13.8036 2.36923 26.6499 255 255 255
-11.353 2.36079 25.7521 254.598 254.432 254.924
-10.162 2.2218 24.236 248.906 253.356 234.765
-4.88369 1.87164 21.3863 57.8615 66.1538 50.2462
0.90384 1.48117 16.9246 52.7833 54.3833 60.2
3.47658 1.4354 16.1459 39.7108 51.4458 36.3012
3.38848 1.2619 13.7652 41.7565 52.8087 37.3913
2.41993 0.715252 7.92192 91.4516 106.731 85.4086
5.0049 1.20846 13.5932 62.7453 79.7736 53.3019
6.60111 1.40654 15.1145 23.3738 30.4019 22.3551
8.34643 1.48986 15.325 54.2911 61.3924 44.1603
9.01262 1.40328 15.5423 20.1489 21.7234 17.5745
9.11897 1.40349 15.5446 23.5349 21.2558 16.1977
9.40627 1.42233 15.5151 25.8241 24.8333 18.75
9.53014 1.42466 15.5405 19.9703 19.0792 16.2871
9.62941 1.4038 15.5481 18.4907 18.8056 13.8889
-4.65314 1.5002 16.6158 25.2222 36.3333 22.6825
-0.644884 1.62445 17.456 92.313 114.435 83.1374
-0.185203 1.5897 17.607 91.191 110.202 81.2022
1.42912 1.53951 17.0511 46.0617 53.5432 43.0864
2.60431 0.910002 9.7787 34.8545 45.4455 35.6
6.4712 1.38444 15.1019 28.2874 25.3563 29.6092
9.7311 1.42628 15.5583 22.7126 19.5287 16.092
10.2199 1.43231 15.624 13.6311 13.165 11.3786
-13.3044 2.38482 25.2507 238.961 237.992 242.071
-13.6141 2.48312 26.6831 255 255 255
-10.4275 2.28068 24.1481 243.485 247.618 240.125
-4.78987 1.40526 16.0572 47.2093 65.8605 35.7674
-4.05191 1.75986 18.9111 38.0976 44.6951 37.378
-1.8296 1.72235 17.7165 63.0632 70.6368 60.9842
-1.52619 1.75614 19.4505 71.4894 80.8085 67.4255
-1.01231 1.67131 17.9596 88.5663 103.229 79.8675
0.549149 1.52081 16.844 58.082 59.082 63.0656
1.62897 1.57561 16.9312 45.8936 58.7128 40.7128
1.86964 1.55961 17.0127 44.1928 51.6386 42.0843
5.85446 1.40431 14.869 18.0583 21.15 18.4667
6.1108 1.39869 15.0301 13.1379 17.3966 14.1121
6.31256 1.40477 15.0954 16.5772 16.9594 14.3984
9.30414 1.42361 15.5291 22.2093 22.0465 15.5814
9.89624 1.48767 15.5239 21.1016 24.4375 15.2344
10.0265 1.47677 15.6362 23.1556 19.8889 16.4
10.1315 1.43337 15.6356 18.8922 17.7647 13.9804
-12.997 1.91508 20.5791 112.659 87.5122 105.537
-12.5347 2.31121 23.4394 201.824 211.528 202.277
-11.677 2.43829 25.4435 254.949 254.747 255
-10.9377 2.35201 24.1933 241.62 246.825 232.007
-0.391172 1.64968 16.969 106.114 132.03 90.7879
7.72229 1.44036 15.0302 38.4569 39.6293 33
9.82281 1.47045 15.5693 24.25 25.2105 18.0658
-12.5454 1.87442 19.5595 91.1569 78.0196 76.1373
-12.1913 1.91642 19.7127 106.383 93.0087 94.5652
-12.654 1.95694 20.7203 84.4808 68.1154 65.1154
-11.1087 1.8749 18.751 107.065 127.525 80.2302
-4.88014 1.45704 15.6571 25.1235 31.8642 23.3457
-4.69819 1.67212 17.9683 44.9811 41.9623 51.5849
-2.12772 1.76439 18.4114 47.9595 47.9459 54.1892
5.46836 1.37666 14.3654 20.9905 25.3048 23.419
7.03516 1.46862 15.1065 29.8 32.5125 26.7875
-12.1611 1.93823 19.3844 69.0833 67.8333 61.875
-11.4784 1.97107 19.1811 55.4878 86.6098 46.9268
-5.43848 1.47367 15.8358 37.0909 48.1948 34.2987
-4.7117 1.51253 15.7832 20.0254 25.7797 19.4068
-4.61607 1.63231 16.3248 16.6309 22.7383 16.4161
-4.5139 1.83481 19.4272 34.2029 37.5652 37.942
-2.21074 1.77611 17.2838 47.9891 49.6304 54.2663
-1.31916 1.69996 17.7391 82.1456 104.641 75.4854
0.141817 1.60245 15.8071 65.4018 82.6786 57.3304
0.302525 1.54952 16.1692 88.625 111.5 77.5938
3.94139 1.21661 11.0912 184.526 147.715 200.759
7.90366 1.50184 15.02 33 33.5965 26.5614
-12.0666 1.95643 19.8415 43.1932 42.2045 33.625
-12.377 2.08447 20.5619 35.6731 40.7212 29.6635
-7.58911 1.90516 18.7932 24.9028 32.6528 25.5347
-6.44138 1.71889 16.9558 52.5114 58.375 48.8636
-5.21035 1.55813 15.583 18.7679 23.4107 17.9911
-5.0249 1.53606 15.5781 20.0175 27.0263 19.614
2.2877 1.57409 15.7426 47.5909 58.2955 40.9091
2.43982 0.757296 7.68023 97.8899 119.679 93.0459
3.30149 1.01999 9.53981 196.496 192.63 195.689
6.67519 1.469 14.8981 35.3951 43.4321 32.0123
-10.3449 1.83798 17.886 52.1163 49.7442 38.4264
-5.88084 1.62163 15.9963 21.3548 26.8452 21.5419
-5.55093 1.57298 15.7315 23.8803 27 24.1453
-3.13506 1.79725 18.4869 50.9688 65.25 45.6563
-2.86846 1.80665 18.8524 44.4643 39.4643 47.2679
0.491264 1.57232 15.7249 66.092 86.069 58.5172
0.71249 1.57826 15.7843 61.3113 69.1981 57.9528
0.927817 1.59368 15.7206 56.3721 67.2209 51.3605
1.93477 1.58222 15.8239 50.2235 67.8 45.0941
2.10029 1.59895 15.7726 51.6753 60.2597 42.8052
3.12844 1.29534 12.4376 49.5448 63.8284 44.2836
4.79911 1.28183 13.1852 44 52.2838 46.8108
7.447 1.52187 15.0123 38.7582 37.3846 41.4066
-11.1315 1.95356 19.5377 63.6383 50.2766 48.1489
-12.0436 2.46983 24.3632 254.449 254.72 253.925
-11.0962 2.38282 23.188 242.473 240.814 242.946
-0.0809867 1.61103 16.3385 102.177 121.032 90.6613
1.10549 1.59883 15.7714 54.5441 73.1618 48.8824
1.27115 1.58808 15.6653 54.6238 66.4653 47.5347
2.80062 1.56458 15.4336 45.9524 58.2381 40.7024
3.27685 1.51364 14.931 47.0408 56.7653 42.0204
2.3239 0.796558 7.75155 72.6075 94.1869 66.0467
7.59627 1.52446 15.0378 43.75 46.21 41.65
9.14768 1.56167 15.1971 51.8571 55.1039 44.6364
-11.0574 2.39547 23.6298 245.693 244.648 245.773
-4.5415 1.74972 17.027 69.8721 86.686 55.3256
-4.50807 1.81362 17.6489 69.8312 88.961 55.1299
-3.82483 1.8855 19.1221 27.3509 32.5789 26.7895
-0.769243 1.73765 16.4655 62.0219 70.9781 58.2678
1.7028 1.61057 15.6729 52.6625 62.6625 46.8375
2.42305 1.59479 15.5194 49.1566 62.8795 42.6988
2.95839 1.59306 15.2963 49.36 59.67 42.73
3.13987 1.56256 15.2058 47.7708 58.1042 42.375
3.31191 1.50651 14.0902 58.3222 71.8889 42.0444
2.60281 1.05839 9.89903 35.1196 40.3152 35.2065
8.52251 1.56608 15.0372 42.2719 42.0351 36.4737
-11.3421 2.09846 20.149 49.7033 48.967 37.0769
-12.3028 2.43761 23.7212 254.284 254.989 254.807
-3.96445 1.78419 17.8438 45.3659 42.6098 53.561
-1.48213 1.71901 16.2889 60.5055 67.8132 59.022
-1.29596 1.66594 16.2118 55.3871 52.4839 65.4032
2.60395 1.59957 15.3587 49.1124 58.7191 43.9438
2.68487 0.867401 8.1127 109.018 127.095 103.32
7.29941 1.55226 14.9045 43.0469 56.1563 37.2188
8.70622 1.5574 15.1555 54.4184 62.9082 48.2653
8.8391 1.60209 15.181 54.2128 54.4894 44.8191
9.44331 1.61028 15.2586 37.3587 31.9783 26.6739
10.1062 1.60714 15.4315 19.1978 24.7473 17.4725
-11.6692 1.83434 18.0946 51.8421 56.9211 44.2632
-11.8731 1.91821 18.6667 63.0149 52.6866 52.0149
-9.03441 1.69442 15.4472 51.2151 48.1505 34.6129
-11.028 2.05757 20.0228 51.48 48.64 36.76
-11.5058 2.44652 22.8821 242.95 244.925 238.542
-11.295 2.46929 23.095 233.517 240.347 222.644
-4.37093 1.88967 17.906 65.9221 85.5455 52.8831
-4.13508 1.82733 17.7823 61.4091 73.0455 52.4545
-3.66346 1.81032 17.6168 42.6444 43.4667 52.2667
-2.74646 1.80081 16.8428 46.1282 45.7949 52.7308
-2.67758 1.80715 17.5859 49.6795 56.9487 46.7692
-2.43798 1.84759 17.7402 52.5294 60.4853 49.1618
1.485 1.629 15.6413 57.1017 62.6271 49.7119
6.82499 1.5341 14.9288 48.561 49.2683 42.2195
7.15662 1.53719 14.9589 47.3684 47.7368 39.9474
8.93104 1.58144 15.1847 53.2529 56.3793 45.1494
9.05358 1.60417 15.2006 51.1163 43.686 43.9302
9.22838 1.59499 15.1137 41.0877 39.7193 29.9737
9.98404 1.58318 15.4064 38.3387 36.9677 27.2419
-8.87386 2.17451 20.8792 118.557 153.349 89.1981
-3.38796 1.84807 17.7448 43.7818 39.0364 51.8909
-3.06326 1.79543 17.2394 38.5574 37.7049 45.1311
2.37947 0.836377 7.62486 85.8367 94.6225 81.2857
5.35828 1.48194 13.8604 51.8788 58.3636 42.9495
5.74441 1.52542 14.4544 47.5 59.6351 42.0541
6.20866 1.53311 14.7206 47.9189 54.4324 40.2162
6.40059 1.5354 14.7426 48.2041 51.7755 40.4898
9.57423 1.61671 15.3195 46.2462 43.9538 34.1538
10.0742 1.6949 15.2588 28.2936 27.1835 21.3578
-10.6836 2.16511 19.7383 45.0811 44.6577 34.5045
-11.4727 2.45813 22.4097 243.167 241.675 243.192
-7.95943 2.20984 19.1769 74.9655 91.1466 60.8707
-4.76043 1.65445 15.6771 53.449 71.551 39.4796
-1.04943 1.71803 15.863 55.776 61.768 56.744
2.34542 0.871531 8.15133 78.3778 93.3778 68.5111
4.5826 1.35831 12.3831 79.6878 92.6341 76.522
5.98344 1.54314 14.6223 49 57.36 39.5333
6.67186 1.57274 14.338 57.3282 67.9084 48.229
8.26327 1.59847 14.759 44.5111 46.4667 37.5111
9.67673 1.62023 15.3529 47.7288 54.9661 40.2881
9.77778 1.64142 15.352 39.2222 38.2716 27.1481
-11.0607 1.95071 17.7837 52.6479 49.0141 44.1831
-11.0702 2.05614 18.2828 31.4194 26.9677 25.5161
-9.26767 1.76357 15.6814 95.5556 109.202 71.4444
-5.42998 1.7687 15.727 15.9909 17.9091 15.5727
-3.48767 1.81579 16.3472 63.8761 78.2743 52.2655
-0.248716 1.67187 15.4367 69.5051 88.6768 60.6061
-0.0536238 1.68957 15.0234 62.4091 74.5091 54.1
2.58126 1.00211 9.37266 21.6875 27.9375 19.6094
6.49246 1.62189 14.2461 55.9512 68.3252 47.065
-11.1405 1.93672 17.221 27.4696 27.8435 25.7043
-11.0091 1.90737 17.1717 32.1505 31.3118 27.6237
-10.7771 1.94362 17.498 38.8286 39.9333 30.7905
-11.4697 2.4139 21.7318 235.489 238.795 237.239
-9.08476 2.2663 20.1516 108.771 143.917 83.5208
-8.83048 2.2033 20.0864 111.967 145.933 88.075
-7.08115 2.00226 18.2537 27.0086 35.2672 27.7586
-4.57088 1.79744 15.5981 31.3765 36.1176 27.9647
1.76054 1.61554 14.5443 56.7262 64.4405 47.5357
6.14806 1.59554 14.0146 56.9091 68.2614 47.2273
6.3362 1.57579 14.1866 58.1222 69.8 47.8556
6.7862 1.62591 14.2814 59.4173 71.0709 49.748
7.40196 1.59775 14.3842 50.7255 56.7451 40.6667
9.21762 1.70166 14.9467 38.0946 42.0135 30.5676
9.83403 1.69997 15.1158 28.2747 33.1978 26.1429
-11.0855 1.98996 17.479 37.5463 42.5278 32.0556
-11.1357 2.01786 17.724 38.0577 45.4904 33.0192
-9.54981 1.95725 17.1917 29.8485 31.4773 25.3409
-10.0704 2.16278 18.7685 42.375 58.575 35.725
-7.3479 2.07721 18.026 55.9885 68.6552 48.2184
-4.42918 1.76699 15.7118 18.4176 24.2967 18.0879
-3.63583 1.84962 16.2463 66.47 87.94 54.38
-3.05475 1.84514 16.2069 60.6977 75.9186 51.4884
0.130983 1.65993 14.5802 54.411 69.5479 46.6027
0.330807 1.6427 14.4288 61.5327 69.8598 54.0841
1.39876 1.63181 14.5098 56.4921 73.1111 49.4762
6.05375 1.62018 14.0599 58.7383 69.8598 47.5047
6.8808 1.61323 14.17 58.8318 68.3271 51.757
7.50585 1.635 14.3612 51.6036 60.955 42.3063
7.65345 1.66247 14.4268 53.5657 68.0404 44
8.02761 1.65769 14.5605 48.4806 58.4496 39.3101
8.86936 1.6618 14.5966 44.4355 53.3871 36.3387
9.71943 1.71543 15.0677 32.8353 27.4353 26.3176
-10.7516 2.07713 17.6019 34.2935 35.7935 28.1304
-9.67599 1.92803 16.935 36.7664 32.8785 28.2523
-8.95926 2.21366 19.4439 106.685 136.917 83.0463
-8.09034 2.15443 18.9236 92.9298 120.219 71.0439
-5.65648 1.83243 15.9017 19.7523 24.8073 20.4495
-5.09212 1.78785 15.7037 19.0187 24.0748 18.4766
-4.91034 1.78292 15.6604 20.9895 23.9895 19.9789
-4.28205 1.8436 15.8085 52.4516 68.957 43.2043
-3.25547 1.86004 16.1413 63.2929 80.697 51.7576
-2.394 1.86557 16.5883 52.3636 51.1061 55.4394
-1.8387 1.78627 15.8833 45.8533 47.08 49.2667
0.495264 1.65486 14.5356 63.092 78.6897 52.4713
0.676163 1.67193 14.509 61.7938 79.4433 52.8041
2.09818 1.64139 14.4173 53.2857 66.1319 46.5055
2.27565 1.64897 14.3097 54.5758 58.7475 47.8788
3.07618 1.59366 13.9981 54.3048 62.3238 44.6667
3.01467 1.39112 12.2191 54.918 61.3771 42.9344
2.31284 0.909943 7.89645 70.0054 83.8967 64.3641
5.95337 1.60533 14.1006 53.3134 73.6418 43.8358
7.84023 1.65376 14.5259 53.4659 66 43.1705
8.69174 1.66811 14.652 46.8065 48.7419 40.2258
-9.74962 1.90639 16.347 89.125 119.672 74.8594
-9.52869 2.05038 17.3752 35.1122 31.3265 24.3776
-11.3196 2.47352 21.7264 245.59 248.88 240.94
-6.2599 1.95239 16.5448 29.7234 36.3298 28.2128
-5.26729 1.82751 15.6706 20.0198 25.7426 20.9505
-4.75487 1.82391 15.6397 28.9412 37.1765 25.6235
-4.20064 1.88708 16.1814 60.4848 79.3535 49.0404
-4.00331 1.88088 16.1282 65.6211 79.2526 50.6526
-3.84635 1.87255 16.2499 64.9462 83.6022 53.3226
-2.82259 1.84208 15.9855 60.3977 76.9773 50.5341
-1.59954 1.82686 15.665 50.2069 51.75 53.181
-0.399224 1.72657 14.6312 66.584 83.656 54.824
0.876086 1.66883 14.4821 60.975 72.2 54.2875
1.03413 1.68449 14.4442 62.3333 74.0753 51.6022
1.21336 1.68376 14.4379 58.7158 71.5368 50.9053
1.5489 1.66157 14.419 59.5366 68.6585 49.7439
1.92101 1.65993 14.4048 56.5195 67.987 46.3377
2.58252 1.63755 14.2106 53.7089 58.7342 44.9494
5.20805 1.551 13.4595 53.3788 71.0303 45.4545
5.54203 1.61121 13.8158 54.5158 69.1158 45.5368
7.12271 1.68823 14.3063 57.5565 74.2957 48.1304
7.26045 1.61742 14.3818 55.5802 62.7037 44.3951
8.83182 1.71261 14.6853 49.5591 58.871 40.7527
9.67291 1.74322 15.1276 32.0492 33.0984 26
-9.46966 1.8618 16.3533 52.12 39.62 35.18
-9.40321 2.30269 19.9827 101.671 132.805 79.9878
-6.89062 2.02997 17.4066 44.3412 51.5882 39.5294
-5.81826 1.84827 15.8486 20.4771 28.4404 21.5505
-1.31652 1.74477 15.1411 41.7979 47.3723 37.766
2.42992 1.67555 14.1988 54.8936 62.5851 45.8404
2.75227 1.68469 14.1106 53.6 61.9429 44.6476
2.90657 1.63908 14.0548 53.1429 61.9048 43.7619
5.76981 1.61061 13.9768 53.8889 67.3827 43.358
8.37366 1.68199 14.5963 50.6806 58.4028 41.0694
8.47775 1.70485 14.6188 50.2162 63.027 40.4189
9.35187 1.72622 14.9801 40.3507 42.2857 28.4416
9.50904 1.73307 15.0395 40.1746 38.3175 28.4286
-9.68577 2.05377 17.2019 28.3 30.5154 21.7154
-9.48883 2.29991 19.7213 100.548 126.536 80.1071
-2.53511 1.81112 15.53 59.2838 72.8378 48.5135
-1.01218 1.73107 14.6693 42.4306 48.9722 39.7917
3.01389 1.55472 12.8725 56.2692 64.3538 44.7
2.64164 1.14878 9.62188 113.521 134.145 83.8889
8.17916 1.68774 14.4721 51.5849 62 41.5283
